ncols         297
nrows         36
xllcorner     181739.540412
yllcorner     1702024.529
cellsize      29.882412706034
NODATA_value  -9999
4.231377 4.204529 4.686806 6.910072 9.133338 11.05541 11.90499 12.75458 13.39722 13.27186 13.1465 12.73225 11.19947 9.666687 8.479739 8.691333 8.902927 9.720199 13.09864 16.47708 19.70883 22.29111 24.87339 27.05557 27.38061 27.70564 27.65177 25.75117 23.85058 21.74733 18.60534 15.46336 13.05096 14.5785 16.10605 17.8486 20.81683 23.78506 26.31532 26.20452 26.0937 25.27914 19.96456 14.64997 10.08762 10.63897 11.19033 11.82824 13.09351 14.35877 15.45421 15.23277 15.01134 14.86422 15.3359 15.80757 16.32447 17.24736 18.17024 19.01238 19.06919 19.126 19.20439 19.51138 19.81837 20.25575 22.20861 24.16146 26.04851 27.09007 28.13163 29.10898 29.16583 29.22268 29.15064 26.9936 24.83656 22.64306 19.77417 16.90527 14.11218 12.95798 11.80377 10.66011 9.789464 8.918818 8.14188 10.37347 12.60507 14.8009 15.49126 16.18163 16.85387 16.42559 15.99731 15.57937 16.27516 16.97094 17.66509 17.61926 17.57343 17.52759 17.31186 17.09531 16.87877 17.21595 17.55976 17.90356 18.32538 18.74869 19.172 17.90024 16.58357 15.2669 18.42755 21.7401 25.05264 29.92579 34.86366 39.80152 39.09841 38.11823 37.13806 34.17753 31.10436 28.03119 27.85225 27.86074 27.86924 28.54426 29.26777 29.99129 29.84677 29.63205 29.41733 28.80648 28.16032 27.51416 24.69212 21.65795 18.62378 17.68123 16.96037 16.23952 17.34479 18.65938 19.97396 19.04597 17.84126 16.63655 16.88379 17.32311 17.76242 17.92711 18.05298 18.17886 18.13169 18.05848 17.98527 19.17777 20.57264 21.96751 23.07801 24.14034 25.20267 25.37645 25.39115 25.40585 25.20894 24.97208 24.73522 24.19943 23.6042 23.00898 20.97473 18.63977 16.3048 15.97931 16.0945 16.20969 14.88461 13.22856 11.57251 12.01861 12.97024 13.92187 13.20945 12.07877 10.94809 9.667893 8.348466 7.029037 9.321021 12.60134 15.88166 16.59031 16.5657 16.54108 15.36496 13.84707 12.32918 12.41077 12.98609 13.56142 14.40356 15.33129 16.25902 15.65468 14.53998 13.42528 11.44792 9.172364 6.896808 7.951585 10.20021 12.44884 13.65533 14.47464 15.29394 16.25502 17.27065 18.28628 17.9476 17.06939 16.19118 15.06683 13.84102 12.61521 14.36244 17.37713 20.39181 21.54486 21.87748 22.21011 21.62592 20.62424 19.62255 19.12344 18.86073 18.59801 19.14459 20.08422 21.02384 21.69603 22.23416 22.77229 22.87558 22.75395 22.63232 22.8764 23.3156 23.7548 21.61325 18.05185 14.49045 13.69552 14.46967 15.24382 16.40192 17.78446 19.167 19.26495 18.58913 17.91331 18.39628 19.59831 20.80034 20.43465 19.06699 17.69932 16.718 15.99096 15.26393 16.27857 18.47345 20.66833 22.33416 23.63094 24.92772 25.25081 24.87479 24.49878 21.38344 16.24397 11.1045 7.86965 6.082991 4.296331 2.856794 1.688819 0.5208436 0 0 0 0 0 0
3.968745 3.735311 3.962904 5.767019 7.571134 9.186178 10.128 11.06982 11.85411 12.05383 12.25355 12.147 10.85467 9.562344 8.62438 9.119459 9.614537 10.62228 13.7979 16.97351 19.98588 22.27552 24.56517 26.56123 27.19461 27.82798 28.10138 26.62036 25.13934 23.45712 20.74365 18.03018 15.75556 15.85083 15.94609 16.53525 19.93985 23.34445 26.26618 26.27604 26.2859 25.59584 20.43024 15.26463 10.85322 11.56897 12.28471 13.10609 14.69319 16.28029 17.56363 16.49164 15.41964 14.48507 14.69469 14.90432 15.18354 16.08764 16.99173 17.80905 17.78236 17.75568 17.77654 18.30123 18.82591 19.51785 22.15358 24.78931 27.30891 28.33673 29.36454 30.28829 29.72051 29.15272 28.47291 25.98074 23.48857 20.97093 17.98133 14.99172 12.09897 11.30001 10.50105 9.731965 9.735922 9.739878 9.807372 11.91474 14.02211 16.09233 16.59891 17.10549 17.6028 17.53789 17.47298 17.41111 17.6772 17.9433 18.20674 17.26845 16.33016 15.39187 15.8086 16.23188 16.65516 17.32078 17.9893 18.65783 17.70503 16.72116 15.7373 15.19795 14.67037 14.1428 18.31912 22.65502 26.99092 31.38947 35.79061 40.19176 39.32762 38.20487 37.08212 33.67342 30.13469 26.59596 25.9236 25.43686 24.95012 25.32902 25.7709 26.21278 26.04436 25.82659 25.60882 25.07297 24.50877 23.94457 21.50378 18.88004 16.25631 15.87029 15.72144 15.5726 16.7297 18.03648 19.34327 18.58402 17.56984 16.55567 16.77527 17.1581 17.54093 17.7501 17.93472 18.11935 18.15543 18.16915 18.18287 19.51149 21.05033 22.58918 23.69435 24.72608 25.7578 25.99057 26.08029 26.17002 25.99903 25.77881 25.55858 24.85857 24.06317 23.26777 20.97116 18.36084 15.75053 15.4192 15.58765 15.7561 14.73456 13.43955 12.14454 12.80567 13.93721 15.06875 14.45671 13.40644 12.35616 11.38612 10.43714 9.488155 11.0031 13.19234 15.38158 16.49821 17.309 18.11979 16.6644 14.53641 12.40841 12.71764 13.77919 14.84075 15.52566 16.08975 16.65384 15.51247 13.80299 12.0935 10.45619 8.843818 7.23145 8.198788 10.09089 11.983 13.19372 14.15129 15.10886 16.25525 17.47432 18.69339 18.23723 17.11369 15.99015 14.82318 13.6383 12.45342 13.94794 16.58473 19.22152 20.2026 20.45399 20.70539 20.26753 19.51581 18.76408 18.52047 18.51587 18.51127 19.38846 20.69391 21.99936 22.478 22.54218 22.60635 22.55639 22.44739 22.33839 22.39375 22.53679 22.67982 21.13346 18.65764 16.18183 15.65106 16.22351 16.79594 17.16775 17.42226 17.67677 17.70122 17.58709 17.47295 17.87743 18.60371 19.33 18.24972 16.01481 13.77991 13.32034 14.02924 14.73813 16.44789 18.83589 21.22388 22.61616 23.31384 24.01152 24.3437 24.41343 24.48317 21.84191 17.19742 12.55294 10.15313 9.460084 8.767034 6.883782 4.069408 1.255034 0 0 0 0 0 0
3.706113 3.266092 3.239003 4.623967 6.00893 7.316951 8.351003 9.385054 10.31101 10.8358 11.36059 11.56175 10.50988 9.458 8.769022 9.547585 10.32615 11.52437 14.49715 17.46994 20.26293 22.25994 24.25694 26.06689 27.0086 27.95031 28.55099 27.48954 26.4281 25.16692 22.88196 20.59701 18.46017 17.12315 15.78613 15.22189 19.06286 22.90383 26.21703 26.34757 26.47811 25.91255 20.89591 15.87928 11.61883 12.49896 13.37909 14.38394 16.29287 18.2018 19.67306 17.7505 15.82795 14.10593 14.05349 14.00106 14.04261 14.92791 15.81322 16.60571 16.49553 16.38535 16.34868 17.09107 17.83346 18.77994 22.09855 25.41715 28.56932 29.58339 30.59745 31.46761 30.27519 29.08277 27.79517 24.96788 22.14059 19.2988 16.18849 13.07818 10.08576 9.642048 9.198334 8.80382 9.682379 10.56094 11.47286 13.45601 15.43915 17.38377 17.70656 18.02934 18.35173 18.65019 18.94864 19.24284 19.07925 18.91565 18.74839 16.91764 15.08689 13.25614 14.30534 15.36844 16.43155 17.42561 18.41885 19.41209 17.08469 14.69364 12.30259 12.49565 12.75718 13.0187 18.21069 23.56994 28.92919 32.85313 36.71757 40.582 39.55683 38.29151 37.02619 33.1693 29.16502 25.16073 23.99494 23.01297 22.031 22.11377 22.27402 22.43427 22.24195 22.02113 21.8003 21.33945 20.85721 20.37498 18.31544 16.10214 13.88883 14.05935 14.48251 14.90568 16.1146 17.41359 18.71258 18.12207 17.29843 16.47478 16.66676 16.9931 17.31944 17.57309 17.81646 18.05984 18.17917 18.27982 18.38047 19.8452 21.52802 23.21084 24.3107 25.31182 26.31293 26.60469 26.76944 26.93419 26.78912 26.58553 26.38195 25.51772 24.52214 23.52656 20.96759 18.08192 15.19625 14.85908 15.0808 15.30251 14.5845 13.65054 12.71658 13.59273 14.90417 16.21562 15.70398 14.73411 13.76423 13.10435 12.52581 11.94727 12.68517 13.78334 14.88151 16.40611 18.0523 19.6985 17.96384 15.22574 12.48764 13.0245 14.57229 16.12008 16.64776 16.84821 17.04866 15.37026 13.06599 10.76172 9.46445 8.515271 7.566092 8.445991 9.981573 11.51716 12.73211 13.82794 14.92377 16.25549 17.678 19.1005 18.52686 17.158 15.78913 14.57953 13.43557 12.29162 13.53343 15.79233 18.05123 18.86033 19.0305 19.20067 18.90914 18.40737 17.9056 17.9175 18.17101 18.42452 19.63233 21.3036 22.97487 23.25996 22.85019 22.44041 22.2372 22.14083 22.04447 21.91109 21.75797 21.60485 20.65367 19.26344 17.8732 17.60661 17.97734 18.34806 17.93357 17.06006 16.18655 16.1375 16.58504 17.0326 17.35857 17.60911 17.85965 16.06479 12.96264 9.8605 9.922686 12.06751 14.21233 16.61721 19.19832 21.77943 22.89815 22.99674 23.09533 23.43658 23.95208 24.46757 22.30037 18.15087 14.00138 12.43662 12.83718 13.23773 10.91077 6.449997 1.989224 0 0 0 0 0 0
3.555063 3.145677 3.098647 4.290721 5.482796 6.610313 7.507959 8.405605 9.211342 9.675987 10.14063 10.34465 9.539565 8.734478 8.307168 9.407565 10.50796 11.89651 14.50355 17.1106 19.57586 21.41346 23.25106 24.97117 26.14593 27.32069 28.20864 27.69874 27.18884 26.47926 24.74614 23.01303 21.25724 19.37902 17.50079 16.38363 19.60488 22.82613 25.62668 25.8903 26.15391 25.76399 21.19523 16.62646 12.72988 13.40291 14.07594 14.95068 17.2875 19.62433 21.44444 19.25789 17.07134 15.10263 14.94766 14.79269 14.70644 15.23712 15.7678 16.21365 15.83446 15.45526 15.18657 16.08901 16.99146 18.09914 21.59234 25.08554 28.37633 29.06676 29.75719 30.29615 28.66407 27.03199 25.34373 22.74658 20.14942 17.55208 14.95116 12.35023 9.867705 9.944631 10.02155 10.15062 11.62884 13.10706 14.59214 16.29763 18.00312 19.66522 19.50134 19.33747 19.17752 19.25679 19.33606 19.4067 18.54886 17.69102 16.83091 14.94528 13.05965 11.17402 12.83847 14.52005 16.20163 17.65463 19.1049 20.55517 17.77938 14.92258 12.06577 12.92665 13.88602 14.8454 19.6024 24.48825 29.37409 32.84096 36.24899 39.65702 38.91354 37.96614 37.01875 33.19282 29.20315 25.21349 23.56671 22.07166 20.57661 20.18418 19.87197 19.55976 19.24942 18.93923 18.62904 18.37317 18.12214 17.87112 16.25787 14.51183 12.76578 13.11474 13.68574 14.25674 15.54339 16.91207 18.28075 17.80588 17.10353 16.40118 16.55713 16.82663 17.09612 17.18085 17.23945 17.29806 17.04797 16.7514 16.45484 18.06471 19.97938 21.89405 23.02078 24.01404 25.0073 25.40693 25.70027 25.99362 26.07675 26.12017 26.1636 25.4259 24.53288 23.63987 20.9517 17.88838 14.82507 14.58028 14.95359 15.3269 14.73725 13.9263 13.11536 13.922 15.11764 16.31329 15.53269 14.25536 12.97803 12.70662 12.69917 12.69173 13.00569 13.40762 13.80954 15.7892 18.21872 20.64824 18.96976 16.07202 13.17429 13.4164 14.62772 15.83905 16.12226 16.10774 16.09322 14.25639 11.81252 9.368647 8.508229 8.195176 7.882123 8.701568 9.926989 11.15241 12.17618 13.12503 14.07387 15.22257 16.44817 17.67377 17.28426 16.25132 15.21838 14.50244 13.91717 13.3319 14.07505 15.38453 16.69402 17.41942 17.88742 18.35542 18.26406 17.91799 17.57191 17.34153 17.16556 16.98959 18.42219 20.63601 22.84984 23.42818 23.18668 22.94518 22.70553 22.46683 22.22812 21.73892 21.11608 20.49323 19.89941 19.32157 18.74372 18.79314 19.19834 19.60354 18.82272 17.3486 15.87448 15.6865 16.27321 16.85993 16.97211 16.78983 16.60756 15.0063 12.49814 9.989974 10.52272 13.05688 15.59104 17.62375 19.31666 21.00957 21.6151 21.4621 21.30909 21.92896 23.10375 24.27854 22.85453 19.5102 16.16587 14.20982 13.30935 12.40887 9.772045 5.77683 1.781615 0 0 0 0 0 0
3.451286 3.173039 3.205521 4.300567 5.395613 6.396228 7.060603 7.724977 8.299548 8.540841 8.782134 8.859854 8.304241 7.748628 7.588359 9.02684 10.46532 12.04414 14.21642 16.38869 18.48033 20.21496 21.9496 23.62065 24.99656 26.37248 27.53076 27.62832 27.72588 27.62321 26.49418 25.36516 24.0935 22.05159 20.00967 18.59398 20.74808 22.90218 24.80704 25.20899 25.61093 25.41833 21.42406 17.42978 13.98729 14.29583 14.60437 15.21613 18.02579 20.83545 23.07261 20.87057 18.66853 16.68225 16.49232 16.3024 16.13489 16.16867 16.20244 16.16531 15.43849 14.71168 14.13704 15.17512 16.2132 17.44255 20.895 24.34745 27.56758 27.80309 28.0386 28.12875 26.13538 24.14201 22.14083 20.01329 17.88577 15.77375 13.94917 12.12459 10.4102 11.07784 11.74547 12.46125 14.42264 16.38404 18.32735 19.69017 21.05299 22.36612 21.58725 20.80839 20.03588 19.64915 19.26242 18.86394 17.19976 15.53558 13.87157 12.28592 10.70026 9.114609 11.387 13.67802 15.96904 17.93627 19.89963 21.86299 19.03121 16.10751 13.18382 14.68514 16.30369 17.92225 21.62969 25.408 29.18631 32.20352 35.18917 38.17483 37.90058 37.46622 37.03186 33.43987 29.66826 25.89666 23.77417 21.75847 19.74278 18.79927 17.93376 17.06826 16.60001 16.16388 15.72776 15.73194 15.77536 15.81878 14.67938 13.42467 12.16995 12.53717 13.0763 13.61542 14.99078 16.46198 17.93318 17.55143 16.94105 16.33067 16.44703 16.65953 16.87203 16.69741 16.46808 16.23875 15.42746 14.52856 13.62966 15.38849 17.57224 19.756 20.92323 21.91827 22.91331 23.44153 23.88616 24.3308 24.72783 25.11587 25.50391 25.01591 24.35373 23.69155 20.93058 17.73102 14.53145 14.42066 14.98723 15.5538 15.01828 14.22951 13.44073 14.05733 15.01188 15.96644 14.7604 13.0113 11.26219 11.41243 12.06108 12.70973 12.74936 12.62232 12.49528 14.94994 18.14072 21.3315 19.85132 16.9848 14.11828 13.84431 14.37062 14.89693 14.8987 14.73221 14.56571 12.73085 10.34022 7.949596 7.567054 7.878661 8.190268 8.960692 9.895594 10.83049 11.58029 12.2613 12.94232 13.75192 14.61101 15.4701 15.3925 14.94174 14.49098 14.49591 14.68868 14.88145 15.02175 15.13968 15.25761 15.93672 16.86314 17.78957 17.92119 17.69088 17.46056 16.77699 15.88023 14.98347 16.59603 19.42729 22.25855 23.33638 23.53525 23.73412 23.5075 23.06081 22.61412 21.6983 20.53219 19.36609 19.02887 19.14767 19.26647 19.65387 20.1936 20.73333 19.76413 17.91285 16.06156 15.70693 16.2538 16.80067 16.64173 16.04483 15.44792 14.42506 13.12995 11.83484 12.81646 15.29655 17.77664 18.985 19.33159 19.67818 19.66899 19.41162 19.15424 20.16691 22.09147 24.01604 23.44923 21.04149 18.63375 15.76683 12.55079 9.334741 6.444764 3.809878 1.174993 0 0 0 0 0 0
3.347509 3.200401 3.312395 4.310412 5.30843 6.182143 6.613246 7.04435 7.387755 7.405695 7.423635 7.375055 7.068916 6.762778 6.869551 8.646115 10.42268 12.19177 13.92928 15.66679 17.38479 19.01646 20.64813 22.27013 23.8472 25.42427 26.85288 27.5579 28.26292 28.76715 28.24222 27.71729 26.92976 24.72415 22.51855 20.80434 21.89128 22.97822 23.98741 24.52768 25.06795 25.07267 21.65289 18.23311 15.24469 15.18875 15.1328 15.48159 18.76408 22.04657 24.70079 22.48326 20.26572 18.26187 18.03699 17.81211 17.56335 17.10021 16.63708 16.11696 15.04253 13.9681 13.08751 14.26123 15.43494 16.78595 20.19765 23.60935 26.75882 26.53942 26.32001 25.96135 23.60669 21.25202 18.93792 17.28001 15.62211 13.99542 12.94719 11.89895 10.9527 12.21104 13.46939 14.77188 17.21645 19.66101 22.06256 23.08271 24.10287 25.06701 23.67316 22.27932 20.89424 20.04151 19.18878 18.32117 15.85066 13.38014 10.91223 9.626551 8.340875 7.055199 9.935543 12.836 15.73645 18.21791 20.69436 23.1708 20.28304 17.29245 14.30186 16.44362 18.72136 20.9991 23.65697 26.32775 28.99852 31.56607 34.12935 36.69263 36.88763 36.9663 37.04498 33.68691 30.13337 26.57983 23.98163 21.44529 18.90895 17.41436 15.99556 14.57675 13.95059 13.38853 12.82648 13.09071 13.42858 13.76645 13.10089 12.3375 11.57412 11.9596 12.46686 12.97411 14.43816 16.01188 17.58561 17.29699 16.77858 16.26016 16.33693 16.49243 16.64793 16.21398 15.69671 15.17944 13.80695 12.30571 10.80447 12.71227 15.16511 17.61795 18.82567 19.8225 20.81932 21.47613 22.07205 22.66798 23.37891 24.11157 24.84422 24.60593 24.17458 23.74323 20.90946 17.57365 14.23783 14.26103 15.02086 15.78069 15.29931 14.53271 13.76611 14.19265 14.90612 15.6196 13.98812 11.76723 9.546352 10.11824 11.42299 12.72773 12.49303 11.83703 11.18103 14.11068 18.06272 22.01476 20.73289 17.89758 15.06227 14.27223 14.11352 13.95482 13.67515 13.35668 13.0382 11.2053 8.867925 6.530546 6.625878 7.562146 8.498413 9.219817 9.864199 10.50858 10.98439 11.39758 11.81076 12.28128 12.77386 13.26643 13.50074 13.63216 13.76358 14.48938 15.4602 16.43101 15.96845 14.89483 13.8212 14.45401 15.83886 17.22372 17.57832 17.46376 17.34921 16.21246 14.5949 12.97735 14.76988 18.21856 21.66725 23.24457 23.88381 24.52305 24.30947 23.65479 23.00011 21.65768 19.94831 18.23895 18.15832 18.97377 19.78923 20.51459 21.18886 21.86313 20.70553 18.47709 16.24864 15.72736 16.23438 16.74141 16.31136 15.29982 14.28829 13.84381 13.76175 13.6797 15.11021 17.53622 19.96223 20.34624 19.34651 18.34678 17.72287 17.36113 16.9994 18.40487 21.0792 23.75354 24.04393 22.57277 21.10162 17.32384 11.79223 6.260611 3.117481 1.842927 0.5683714 0 0 0 0 0 0
3.695524 3.745356 3.989907 4.900311 5.810716 6.515438 6.487782 6.460126 6.417263 6.317961 6.218658 6.146231 6.177859 6.209487 6.579698 8.319119 10.05854 11.74729 13.22177 14.69625 16.18905 17.76293 19.33681 20.90045 22.41658 23.93271 25.36617 26.39672 27.42727 28.27759 28.20411 28.13064 27.74059 25.64097 23.54135 21.8389 22.40051 22.96213 23.52897 24.12727 24.72557 24.82943 21.77167 18.71391 15.98925 15.52907 15.0689 15.08372 18.54155 21.99939 24.84663 22.9593 21.07197 19.37216 19.23364 19.09512 18.90983 18.30463 17.69943 17.06704 16.17017 15.2733 14.54289 15.57647 16.61006 17.78614 20.6185 23.45085 26.08436 26.16332 26.24227 26.18737 24.21378 22.24019 20.27748 18.49065 16.70383 14.95223 13.85323 12.75424 11.77372 13.35458 14.93545 16.54359 18.85759 21.17158 23.42002 23.56393 23.70784 23.80081 21.74914 19.69748 17.66885 17.03834 16.40783 15.76512 13.80894 11.85275 9.899199 9.138776 8.378354 7.617931 10.2932 12.98505 15.67691 18.32529 20.97314 23.621 20.18251 16.62735 13.07218 15.81903 18.73284 21.64666 24.01831 26.37156 28.72482 30.74385 32.74902 34.75419 35.25199 35.67575 36.09952 33.27689 30.26962 27.26234 24.57358 21.90545 19.23731 17.38971 15.6018 13.8139 13.07585 12.42271 11.76956 12.10685 12.53241 12.95797 12.48105 11.91616 11.35126 11.45836 11.63669 11.81502 13.53112 15.42348 17.31584 17.39119 17.24235 17.0935 17.3086 17.57185 17.8351 17.37055 16.80312 16.23569 14.50802 12.6057 10.70338 12.54107 14.97673 17.41239 18.21531 18.74168 19.26805 19.82747 20.3928 20.95813 21.98545 23.10003 24.2146 24.1241 23.79399 23.46388 20.87885 17.82259 14.76633 14.64595 15.16941 15.69287 15.05329 14.14645 13.23961 13.40749 13.83381 14.26014 12.39391 9.95146 7.509007 8.629394 10.68471 12.74003 12.41428 11.43691 10.45953 13.67741 18.09148 22.50555 21.44152 18.75157 16.06162 14.64249 13.61563 12.58877 11.98664 11.52075 11.05486 9.858562 8.418958 6.979353 7.691985 9.148597 10.60521 11.3933 11.94174 12.49018 12.42328 12.12778 11.83228 11.53205 11.23 10.92796 11.84057 13.23709 14.63361 15.76286 16.78194 17.80102 16.89116 15.15897 13.42678 13.67735 14.80173 15.92611 16.66262 17.2225 17.78238 16.70354 14.85387 13.00421 14.32668 17.18975 20.05281 21.78419 22.94828 24.11236 24.00485 23.23961 22.47438 20.93897 18.99266 17.04635 17.15421 18.39221 19.63021 20.54053 21.26501 21.98948 21.02324 19.06866 17.11407 16.48059 16.64287 16.80515 16.14182 14.96618 13.79054 13.76182 14.46614 15.17045 16.77739 18.97841 21.17942 21.2049 19.75616 18.30741 17.49393 17.1236 16.75327 18.10254 20.6865 23.27046 23.85599 22.96484 22.07369 18.71552 13.48152 8.247534 5.202178 3.869046 2.535914 1.583699 0.9380659 0.2924326 0 0 0
4.241424 4.51702 4.91736 5.744277 6.571193 7.088487 6.503308 5.918128 5.421061 5.250993 5.080925 5.029524 5.437592 5.845659 6.477729 8.015656 9.553584 11.04346 12.33014 13.61682 14.94941 16.48528 18.02116 19.52238 20.86277 22.20317 23.52521 24.75779 25.99037 27.07253 27.38367 27.69481 27.66429 25.78876 23.91323 22.35844 22.63206 22.90568 23.22874 23.84989 24.47105 24.63105 21.84224 19.05344 16.50918 15.62736 14.74555 14.3953 17.89818 21.40105 24.34321 22.93749 21.53177 20.2769 20.27787 20.27885 20.22041 19.62856 19.03671 18.45443 17.96516 17.47589 17.09543 17.86809 18.64076 19.51201 21.52911 23.54621 25.46872 26.17598 26.88324 27.46172 26.19436 24.92701 23.60665 21.42875 19.25085 17.10705 15.59501 14.08297 12.71673 14.50264 16.28856 18.07926 19.99385 21.90845 23.73603 22.76998 21.80393 20.79699 18.06876 15.34052 12.65476 12.5479 12.44105 12.32724 11.46385 10.60046 9.738665 9.602168 9.465672 9.329176 11.44326 13.56821 15.69316 18.35634 21.02595 23.69556 19.48964 15.15192 10.8142 14.15064 17.69041 21.23017 23.64994 26.03172 28.4135 29.8407 31.22831 32.61592 33.34362 34.03891 34.73421 32.57908 30.26182 27.94456 25.33394 22.70432 20.07471 17.96085 15.88453 13.8082 12.97842 12.24945 11.52049 11.84894 12.27162 12.69431 12.28112 11.78644 11.29176 10.99055 10.70985 10.42915 12.46884 14.77449 17.08015 17.6381 17.98041 18.32273 18.7541 19.19726 19.64042 19.24544 18.732 18.21856 16.22597 14.0107 11.79545 13.46709 15.76018 18.05327 18.25634 18.10541 17.95448 18.31754 18.77261 19.22768 20.57248 22.08532 23.59815 23.6108 23.32517 23.03955 20.84408 18.24949 15.6549 15.26937 15.36828 15.4672 14.57641 13.4582 12.33998 12.21914 12.33814 12.45714 10.43971 7.885273 5.33084 7.055285 9.902555 12.74983 12.41331 11.20549 9.997671 13.42196 18.167 22.91204 22.0744 19.57981 17.08523 14.9875 13.01227 11.03704 10.09447 9.483161 8.871852 8.590137 8.418215 8.246293 9.637292 11.56856 13.49982 14.40528 14.943 15.48072 14.75342 13.55613 12.35885 11.09881 9.814617 8.530429 10.28184 13.24258 16.20333 17.59699 18.34468 19.09237 17.80335 15.64606 13.48877 13.20994 13.75896 14.30799 15.49602 16.97505 18.45407 17.65697 15.78925 13.92153 14.48923 16.23973 17.99024 19.72437 21.45031 23.17624 23.21552 22.38242 21.54931 19.92327 17.87418 15.82509 16.0916 17.63209 19.17257 20.20084 20.93858 21.67632 21.06776 19.67219 18.27662 17.55478 17.23877 16.92276 16.04273 14.81272 13.5827 13.89851 15.2023 16.50609 18.17014 20.07129 21.97245 21.84343 20.33869 18.83395 18.01711 17.68013 17.34316 18.43958 20.56517 22.69077 23.32525 22.85793 22.3906 20.03476 16.24299 12.45122 9.657348 7.64415 5.630952 3.861066 2.287009 0.7129522 0 0 0
4.787324 5.288683 5.844814 6.588242 7.33167 7.661537 6.518833 5.37613 4.424859 4.184025 3.943191 3.912818 4.697325 5.481831 6.375761 7.712194 9.048627 10.33963 11.43851 12.53738 13.70978 15.20764 16.70551 18.14431 19.30897 20.47362 21.68424 23.11886 24.55348 25.86748 26.56322 27.25897 27.58798 25.93654 24.28511 22.87799 22.86362 22.84924 22.92851 23.57252 24.21653 24.43267 21.91282 19.39297 17.02911 15.72565 14.4222 13.70689 17.25481 20.80272 23.83978 22.91568 21.99158 21.18163 21.32211 21.46258 21.53099 20.95249 20.37399 19.84181 19.76014 19.67847 19.64797 20.15971 20.67146 21.23788 22.43973 23.64157 24.85308 26.18864 27.5242 28.73607 28.17495 27.61383 26.93582 24.36684 21.79786 19.26186 17.33678 15.4117 13.65975 15.65071 17.64167 19.61492 21.13012 22.64532 24.05204 21.97603 19.90002 17.79318 14.38837 10.98356 7.640666 8.05747 8.474275 8.889355 9.118757 9.348161 9.578131 10.06556 10.55299 11.04042 12.59332 14.15137 15.70942 18.3874 21.07876 23.77012 18.79677 13.67649 8.556219 12.48226 16.64797 20.81368 23.28158 25.69188 28.10219 28.93754 29.70759 30.47764 31.43525 32.40207 33.3689 31.88126 30.25402 28.62678 26.0943 23.5032 20.9121 18.532 16.16725 13.8025 12.88099 12.0762 11.27142 11.59102 12.01083 12.43064 12.08118 11.65672 11.23226 10.52274 9.78301 9.043278 11.40656 14.12551 16.84446 17.88502 18.71848 19.55195 20.1996 20.82266 21.44573 21.12033 20.66088 20.20143 17.94391 15.41571 12.88752 14.3931 16.54362 18.69415 18.29738 17.46915 16.64092 16.80761 17.15242 17.49723 19.15952 21.0706 22.98169 23.0975 22.85636 22.61522 20.80931 18.67639 16.54348 15.89279 15.56716 15.24152 14.09953 12.76995 11.44036 11.03079 10.84247 10.65415 8.485497 5.819086 3.152673 5.481175 9.120399 12.75962 12.41234 10.97408 9.53581 13.1665 18.24251 23.31853 22.70728 20.40806 18.10883 15.33251 12.40891 9.485312 8.202303 7.445575 6.688847 7.321711 8.417472 9.513232 11.5826 13.98852 16.39444 17.41725 17.94426 18.47126 17.08355 14.98448 12.88541 10.66556 8.399231 6.132902 8.723107 13.24807 17.77304 19.43111 19.90742 20.38372 18.71555 16.13315 13.55076 12.74253 12.7162 12.68986 14.32942 16.72759 19.12576 18.61041 16.72463 14.83884 14.65178 15.28972 15.92766 17.66455 19.95233 22.24011 22.4262 21.52522 20.62424 18.90757 16.7557 14.60383 15.029 16.87196 18.71493 19.86114 20.61215 21.36316 21.11228 20.27572 19.43916 18.62898 17.83467 17.04037 15.94364 14.65925 13.37486 14.0352 15.93847 17.84174 19.56289 21.16418 22.76548 22.48196 20.92122 19.36049 18.54029 18.23667 17.93306 18.77662 20.44385 22.11108 22.79452 22.75101 22.7075 21.35401 19.00446 16.65491 14.11252 11.41925 8.725991 6.138433 3.635952 1.133472 0 0 0
4.953545 5.656321 6.34359 6.977834 7.612079 7.822917 6.52613 5.229343 4.180763 4.053321 3.92588 3.994503 4.822263 5.650023 6.519995 7.560669 8.601343 9.629859 10.60696 11.58406 12.65223 14.12362 15.595 16.98819 18.01845 19.0487 20.13073 21.4651 22.79947 24.06194 24.95594 25.84993 26.38386 24.97335 23.56284 22.3387 22.17697 22.01523 21.97124 22.63729 23.30333 23.57277 21.30614 19.03951 16.90176 15.64012 14.37848 13.68231 17.08498 20.48764 23.4434 22.93377 22.42414 21.977 22.05015 22.1233 22.11246 21.3476 20.58275 19.90776 20.10689 20.30602 20.52445 20.94738 21.3703 21.7978 22.27836 22.75891 23.3049 24.69147 26.07804 27.38729 27.5884 27.78951 27.84733 25.58703 23.32674 21.10277 19.55173 18.0007 16.58397 18.07084 19.5577 20.99412 21.12526 21.2564 21.32538 19.3987 17.47203 15.5276 12.83592 10.14424 7.505024 8.051423 8.597821 9.143447 9.605811 10.06818 10.52993 10.71276 10.8956 11.07844 12.64024 14.2087 15.77715 18.52564 21.28823 24.05083 19.05807 13.91666 8.775251 12.67379 16.81184 20.94988 23.63235 26.26543 28.89851 29.05533 29.10948 29.16363 29.98369 30.84137 31.69905 30.75017 29.69854 28.6469 26.39841 24.07241 21.74641 19.22037 16.67977 14.13916 12.96171 11.8945 10.82729 11.11233 11.51788 11.92342 11.77414 11.57076 11.36739 10.54768 9.662642 8.777608 10.9217 13.41299 15.90428 17.15298 18.24836 19.34374 20.31416 21.26805 22.22194 22.13069 21.89171 21.65274 19.38052 16.80222 14.22391 15.51885 17.43304 19.34724 18.51801 17.22409 15.93018 16.09554 16.52217 16.9488 18.7619 20.83684 22.91178 22.94438 22.5709 22.19743 20.60833 18.7652 16.92207 16.07713 15.45109 14.82505 13.61001 12.25961 10.90921 10.36686 10.01883 9.670804 7.919161 5.814719 3.710278 5.955689 9.342552 12.72941 12.35751 10.95694 9.556368 13.15273 18.17388 23.19502 22.80199 20.80202 18.80206 15.7962 12.47985 9.163492 7.821336 7.112478 6.40362 7.576406 9.375997 11.17559 13.24674 15.41176 17.57678 17.92066 17.6117 17.30273 16.02511 14.3876 12.7501 11.26105 9.829135 8.397216 10.59257 14.23296 17.87336 19.01295 19.12169 19.23042 18.10538 16.45435 14.80332 13.82847 13.15162 12.47477 14.05862 16.67198 19.28533 19.15157 17.72566 16.29974 15.34027 14.60734 13.87441 14.98503 17.01979 19.05455 19.24595 18.48391 17.72186 16.26892 14.44737 12.62583 13.22598 15.15848 17.09097 18.59721 19.86168 21.12615 21.24514 20.69452 20.14391 19.25532 18.16316 17.071 15.89923 14.67805 13.45688 14.16949 16.11803 18.06657 19.60577 20.87557 22.14537 21.76717 20.27223 18.77728 18.17584 18.19769 18.21955 19.09736 20.58974 22.08213 22.73407 22.76497 22.79588 22.00387 20.58615 19.16843 16.90809 13.98856 11.06903 7.967444 4.719323 1.471202 0 0 0
4.947911 5.841083 6.648332 7.161763 7.675193 7.797963 6.529702 5.261442 4.277095 4.346401 4.415708 4.618617 5.33882 6.059024 6.775669 7.477916 8.180164 8.917403 9.802609 10.68782 11.67711 13.12722 14.57734 15.93253 16.8471 17.76167 18.70734 19.80463 20.90191 21.9846 22.9925 24.00039 24.66926 23.50729 22.34533 21.32014 21.07471 20.82928 20.71658 21.40428 22.09199 22.41344 20.39291 18.37238 16.48143 15.47138 14.46133 13.9582 17.12949 20.30078 23.09546 22.96991 22.84436 22.72286 22.63508 22.5473 22.36392 21.32231 20.28069 19.37558 19.79812 20.22066 20.64229 21.0543 21.46631 21.82998 21.63177 21.43357 21.33463 22.5109 23.68717 24.8512 25.83989 26.82857 27.66452 26.02965 24.39478 22.8016 21.98087 21.16014 20.40495 21.06674 21.72853 22.3025 20.60389 18.90529 17.22152 16.01416 14.80681 13.59616 12.24664 10.89712 9.577522 10.07515 10.57278 11.06864 11.37478 11.68092 11.98519 11.44317 10.90114 10.35911 12.18784 14.02801 15.86819 18.71241 21.56862 24.42484 19.75127 14.93336 10.11546 13.70719 17.52172 21.33626 24.30861 27.2524 30.19619 29.63524 28.92897 28.22269 28.73888 29.31511 29.89135 29.42296 28.89515 28.36735 26.49601 24.53767 22.57932 19.96179 17.29629 14.63079 13.12306 11.70897 10.29488 10.5337 10.91983 11.30596 11.41862 11.50461 11.59061 10.79565 9.907311 9.018975 10.6982 12.67172 14.64523 15.97785 17.23138 18.48491 19.8263 21.17932 22.53233 22.74972 22.80659 22.86346 20.6898 18.18035 15.6709 16.73499 18.37043 20.00587 18.81993 17.15611 15.49229 15.74462 16.34 16.93538 18.82387 20.95655 23.08924 22.95428 22.36844 21.7826 20.33214 18.70098 17.06982 16.06272 15.19247 14.32222 13.11475 11.82979 10.54484 9.94029 9.499371 9.058451 7.981018 6.743598 5.506178 7.357475 10.01929 12.6811 12.27829 11.03679 9.795284 13.24835 18.03999 22.83163 22.6531 20.99943 19.34575 16.31363 12.856 9.39837 8.124387 7.550888 6.977389 8.520512 10.76872 13.01692 14.78361 16.38386 17.98411 17.28861 15.77014 14.25167 13.43288 12.87405 12.31521 12.32219 12.54691 12.77163 14.01373 15.66115 17.30857 17.57533 17.27296 16.9706 16.80613 16.70046 16.59478 15.61751 14.25611 12.89472 14.19331 16.7032 19.2131 19.50612 18.7564 18.00667 16.26683 14.04611 11.82539 12.02502 13.43792 14.85083 14.9835 14.45399 13.92448 12.89568 11.60049 10.3053 11.08783 13.01346 14.9391 16.91495 18.91928 20.9236 21.41799 21.02971 20.64143 19.67896 18.37061 17.06226 15.87956 14.77483 13.6701 14.30269 16.04565 17.78861 19.03767 19.96165 20.88564 20.43983 19.06579 17.69176 17.40962 17.88917 18.36871 19.41072 20.8566 22.30247 22.88648 22.83365 22.78082 22.35075 21.63383 20.91691 18.95248 16.01209 13.0717 9.593514 5.682487 1.771458 0 0 0
4.942277 6.025846 6.953075 7.345691 7.738308 7.773009 6.533275 5.29354 4.373427 4.639481 4.905535 5.242731 5.855378 6.468026 7.031342 7.395163 7.758985 8.204948 8.99826 9.791572 10.70198 12.13083 13.55968 14.87687 15.67575 16.47463 17.28396 18.14416 19.00436 19.90726 21.02906 22.15086 22.95466 22.04123 21.12781 20.30159 19.97246 19.64333 19.46191 20.17128 20.88065 21.25411 19.47968 17.70525 16.06111 15.30264 14.54418 14.23409 17.174 20.11392 22.74753 23.00606 23.26459 23.46872 23.22001 22.9713 22.61538 21.29701 19.97864 18.8434 19.48935 20.1353 20.76014 21.16123 21.56231 21.86215 20.98519 20.10823 19.36436 20.33033 21.2963 22.31511 24.09137 25.86763 27.48172 26.47227 25.46282 24.50043 24.41 24.31957 24.22592 24.06264 23.89937 23.61088 20.08253 16.55417 13.11766 12.62963 12.1416 11.66472 11.65736 11.64999 11.65002 12.09888 12.54773 12.99384 13.14375 13.29367 13.44046 12.17357 10.90668 9.639781 11.73544 13.84733 15.95922 18.89917 21.84901 24.79885 20.44446 15.95006 11.45567 14.74058 18.23161 21.72263 24.98488 28.23938 31.49387 30.21515 28.74846 27.28176 27.49408 27.78886 28.08365 28.09575 28.09177 28.08779 26.59361 25.00292 23.41224 20.70321 17.91281 15.12242 13.28442 11.52345 9.762473 9.955079 10.32179 10.6885 11.0631 11.43847 11.81384 11.04362 10.15198 9.260344 10.4747 11.93044 13.38618 14.80271 16.21439 17.62608 19.33844 21.09058 22.84273 23.36875 23.72147 24.07419 21.99908 19.55848 17.11789 17.95114 19.30782 20.6645 19.12186 17.08813 15.0544 15.39369 16.15782 16.92196 18.88583 21.07627 23.26671 22.96418 22.16598 21.36778 20.05594 18.63676 17.21758 16.04831 14.93385 13.81939 12.6195 11.39998 10.18047 9.513722 8.97991 8.446097 8.042875 7.672477 7.302079 8.759261 10.69602 12.63278 12.19907 11.11664 10.0342 13.34398 17.90611 22.46824 22.50422 21.19683 19.88944 16.83105 13.23215 9.633248 8.427437 7.989297 7.551157 9.464619 12.16144 14.85825 16.32049 17.35596 18.39143 16.65656 13.92858 11.20061 10.84066 11.36049 11.88031 13.38332 15.26468 17.14604 17.4349 17.08935 16.74379 16.13771 15.42424 14.71077 15.50689 16.94657 18.38624 17.40654 15.36061 13.31468 14.32799 16.73443 19.14087 19.86068 19.78714 19.71361 17.19338 13.48487 9.776369 9.065002 9.85605 10.6471 10.72104 10.42407 10.12711 9.522436 8.753601 7.984766 8.94968 10.86845 12.78722 15.23268 17.97687 20.72105 21.59084 21.3649 21.13896 20.10259 18.57805 17.05351 15.85989 14.87161 13.88332 14.4359 15.97328 17.51065 18.46956 19.04773 19.6259 19.11248 17.85936 16.60624 16.6434 17.58064 18.51787 19.72409 21.12345 22.5228 23.03889 22.90233 22.76576 22.69762 22.68151 22.6654 20.99687 18.03562 15.07436 11.21958 6.64565 2.071715 0 0 0
5.446873 6.037862 6.585393 6.984321 7.383249 7.43491 6.250056 5.065201 4.196583 4.501568 4.806553 5.192069 5.889388 6.586706 7.231941 7.666548 8.101155 8.577656 9.231304 9.884953 10.60973 11.64943 12.68913 13.65418 14.27268 14.89118 15.55983 16.4729 17.38598 18.36058 19.65053 20.94049 21.92764 21.27957 20.63149 20.01807 19.6022 19.18632 18.92013 19.55658 20.19303 20.52238 18.88804 17.25371 15.7315 14.97161 14.21172 13.8776 16.62972 19.38184 21.87364 22.34689 22.82014 23.21451 22.95223 22.68995 22.3286 21.07788 19.82717 18.74556 19.3088 19.87205 20.41547 20.74879 21.08211 21.31851 20.42844 19.53836 18.75317 19.31533 19.87748 20.53943 22.63178 24.72414 26.68878 26.58747 26.48616 26.39105 26.41087 26.43069 26.38526 24.92925 23.47324 21.95287 18.7674 15.58192 12.49056 12.42106 12.35155 12.28502 12.34328 12.40154 12.46299 12.71785 12.97272 13.22553 13.25781 13.29008 13.31958 12.08822 10.85685 9.625484 11.81988 14.03082 16.24176 19.17878 22.12448 25.07018 21.16854 17.13565 13.10276 15.41479 17.89492 20.37506 23.94951 27.56109 31.17266 30.20732 29.0522 27.89708 27.92069 28.00219 28.08369 28.28709 28.49742 28.70776 27.49574 26.19162 24.88749 22.18108 19.37264 16.56421 14.64016 12.78763 10.93511 10.97467 11.18285 11.39104 11.66022 11.93534 12.21047 11.21212 10.07879 8.945465 9.689163 10.64801 11.60685 13.03242 14.51559 15.99875 17.98954 20.04749 22.10544 22.95618 23.63629 24.3164 22.48479 20.27506 18.06533 18.63827 19.65611 20.67394 19.01064 16.8932 14.77576 15.19506 16.06852 16.94198 18.878 21.01469 23.15138 22.75536 21.85577 20.95617 19.95987 18.94335 17.92683 16.99693 16.08602 15.17511 13.80071 12.3198 10.83889 9.824013 8.921203 8.018392 8.104345 8.438825 8.773304 9.966811 11.38574 12.80466 12.70904 12.19894 11.68883 14.42656 18.09035 21.75414 21.67238 20.47894 19.2855 16.40638 13.00691 9.60745 8.55127 8.246784 7.942299 9.960299 12.75196 15.54362 16.52379 16.87778 17.23178 15.92706 14.02773 12.12841 12.39673 13.47039 14.54405 15.87878 17.31399 18.74919 18.16102 16.76678 15.37254 14.60456 14.09473 13.58491 14.85424 16.88205 18.90986 18.37032 16.69935 15.02837 15.70169 17.44256 19.18343 19.90493 20.14695 20.38897 17.43062 12.91798 8.405331 7.618994 8.700594 9.782193 9.964259 9.681056 9.397854 8.598576 7.523959 6.449342 7.500276 9.720625 11.94097 14.41542 17.03398 19.65254 20.58399 20.52921 20.47444 19.63847 18.33194 17.02542 15.97387 15.08053 14.18719 14.65572 15.99465 17.33358 18.15261 18.62946 19.10631 18.59696 17.41932 16.24168 16.37784 17.4305 18.48315 19.79007 21.27956 22.76905 23.32981 23.2043 23.07879 23.09532 23.21986 23.3444 21.80539 18.96493 16.12448 12.12015 7.179075 2.238005 0 0 0
6.190032 5.96911 5.903315 6.367991 6.832669 6.950398 5.832746 4.715093 3.892013 4.16214 4.432268 4.825909 5.697777 6.569644 7.406789 8.103514 8.800238 9.457741 9.949391 10.44104 10.93028 11.40882 11.88737 12.35339 12.76126 13.16913 13.69509 14.79661 15.89812 17.062 18.54549 20.02898 21.22211 20.84724 20.47238 20.07823 19.57419 19.07014 18.71166 19.23097 19.75028 19.99058 18.44676 16.90295 15.44431 14.56469 13.68507 13.22544 15.81015 18.39484 20.75383 21.36262 21.9714 22.49271 22.28576 22.07881 21.79016 20.76813 19.74609 18.85079 19.18821 19.52563 19.85456 20.09353 20.3325 20.50564 19.91368 19.32173 18.77743 18.84529 18.91315 19.11928 21.30729 23.49529 25.61058 26.54959 27.4886 28.37133 28.21149 28.05165 27.76768 24.80028 21.83287 18.90791 17.08113 15.25436 13.48906 13.69744 13.90582 14.09839 13.62543 13.15247 12.68706 12.68003 12.673 12.66541 12.59809 12.53077 12.46175 11.62145 10.78114 9.940832 12.15534 14.38458 16.61383 19.50181 22.39765 25.2935 21.90706 18.4002 14.89334 15.92106 17.06891 18.21677 22.11385 26.10419 30.09454 29.92471 29.58237 29.24003 29.12877 29.02887 28.92896 29.18845 29.46838 29.7483 28.77404 27.71856 26.66308 24.00329 21.22677 18.45025 16.55434 14.72965 12.90496 12.74153 12.72614 12.71076 12.70275 12.69547 12.68818 11.34346 9.856985 8.370508 8.640844 9.112546 9.584249 10.98387 12.49799 14.01211 16.23805 18.55817 20.87829 22.06128 23.08353 24.10579 22.58544 20.68232 18.77921 19.07805 19.72895 20.37985 18.70625 16.63891 14.57157 15.06764 16.02264 16.97763 18.83755 20.86835 22.89915 22.44427 21.49517 20.54607 19.94801 19.42332 18.89863 18.39582 17.89782 17.39982 15.76577 13.87066 11.97554 10.47883 9.077924 7.677018 8.165633 9.129179 10.09272 11.08354 12.08152 13.0795 13.49449 13.74994 14.00539 15.97061 18.42334 20.87607 20.52123 19.3331 18.14497 15.54123 12.5005 9.45977 8.591308 8.419681 8.248053 10.24632 12.96741 15.6885 16.10358 15.72152 15.33947 15.152 15.03428 14.91656 15.89238 17.27448 18.65658 19.04488 19.05075 19.05661 17.62705 15.62563 13.62421 13.02674 13.00799 12.98924 14.5039 16.67229 18.84068 18.94824 18.1476 17.34696 17.6547 18.46718 19.27966 19.80409 20.19305 20.582 17.34558 12.34843 7.35129 6.880873 8.679627 10.47838 10.84658 10.47486 10.10313 8.819944 7.050473 5.281003 6.3729 9.039039 11.70518 14.00259 16.09086 18.17913 19.02557 19.14608 19.26659 18.75927 17.87377 16.98828 16.15033 15.34189 14.53345 14.91604 16.05986 17.20368 17.9531 18.44294 18.93277 18.461 17.3376 16.2142 16.34637 17.35441 18.36245 19.74039 21.38391 23.02743 23.68548 23.61535 23.54521 23.51679 23.52008 23.52337 22.03606 19.38264 16.72921 12.68149 7.511573 2.341658 0 0 0
6.933191 5.900357 5.221235 5.751662 6.282089 6.465886 5.415435 4.364984 3.587443 3.822713 4.057983 4.459749 5.506166 6.552583 7.581637 8.540479 9.49932 10.33783 10.66748 10.99713 11.25082 11.16822 11.08561 11.0526 11.24984 11.44707 11.83035 13.12031 14.41027 15.76342 17.44044 19.11746 20.51657 20.41492 20.31326 20.13839 19.54618 18.95396 18.50319 18.90536 19.30753 19.45877 18.00549 16.5522 15.15713 14.15778 13.15843 12.57329 14.99057 17.40785 19.63402 20.37834 21.12266 21.77091 21.61929 21.46766 21.25172 20.45837 19.66502 18.95603 19.06762 19.17921 19.29364 19.43826 19.58289 19.69277 19.39893 19.10509 18.80168 18.37525 17.94882 17.69913 19.98279 22.26644 24.53238 26.51171 28.49104 30.35161 30.01211 29.67261 29.15011 24.67131 20.19251 15.86294 15.39487 14.9268 14.48756 14.97383 15.46009 15.91177 14.90759 13.9034 12.91113 12.6422 12.37328 12.10529 11.93838 11.77146 11.60393 11.15468 10.70543 10.25618 12.49079 14.73835 16.98591 19.82483 22.67082 25.51682 22.64558 19.66475 16.68392 16.42733 16.2429 16.05848 20.27818 24.6473 29.01641 29.64208 30.11253 30.58298 30.33686 30.05555 29.77423 30.0898 30.43933 30.78885 30.05235 29.24551 28.43867 25.82549 23.08089 20.33629 18.46852 16.67167 14.87481 14.50838 14.26943 14.03047 13.74529 13.45559 13.1659 11.47481 9.635179 7.795552 7.592525 7.577086 7.561647 8.935321 10.48039 12.02547 14.48657 17.06886 19.65114 21.16637 22.53077 23.89518 22.68609 21.08958 19.49308 19.51784 19.8018 20.08577 18.40186 16.38462 14.36739 14.94022 15.97675 17.01329 18.79709 20.722 22.64692 22.13318 21.13457 20.13596 19.93616 19.90329 19.87042 19.79472 19.70962 19.62453 17.73083 15.42151 13.11219 11.13365 9.234646 7.335645 8.226921 9.819533 11.41214 12.20028 12.77731 13.35434 14.27994 15.30095 16.32195 17.51466 18.75633 19.998 19.37008 18.18726 17.00445 14.67607 11.99408 9.312091 8.631347 8.592576 8.553806 10.53233 13.18285 15.83337 15.68336 14.56526 13.44716 14.37693 16.04082 17.70471 19.38803 21.07857 22.7691 22.21097 20.78751 19.36404 17.09307 14.48448 11.87588 11.44892 11.92124 12.39356 14.15357 16.46253 18.77149 19.52617 19.59586 19.66556 19.60772 19.4918 19.37589 19.70326 20.23915 20.77503 17.26052 11.77889 6.297249 6.142751 8.658662 11.17457 11.72891 11.26866 10.80841 9.041313 6.576988 4.112662 5.245524 8.357452 11.46938 13.58976 15.14774 16.70572 17.46716 17.76295 18.05874 17.88007 17.4156 16.95114 16.3268 15.60325 14.87971 15.17637 16.12507 17.07378 17.75359 18.25641 18.75924 18.32504 17.25588 16.18672 16.3149 17.27833 18.24175 19.6907 21.48825 23.2858 24.04115 24.02639 24.01164 23.93825 23.82029 23.70233 22.26674 19.80034 17.33394 13.24283 7.84407 2.44531 0 0 0
7.560197 5.687213 4.404757 5.141652 5.878546 6.216558 5.134264 4.05197 3.212407 3.273659 3.334911 3.5971 4.63729 5.677481 6.736748 7.873158 9.009567 10.01564 10.47057 10.9255 11.24864 10.9883 10.72795 10.49994 10.42198 10.34403 10.48268 11.67702 12.87136 14.14381 15.81662 17.48942 18.91579 19.01138 19.10696 19.13193 18.75439 18.37686 18.08736 18.32882 18.57028 18.55811 16.92414 15.29016 13.7563 12.90293 12.04956 11.6171 14.23561 16.85411 19.25654 19.98353 20.71052 21.33812 21.13825 20.93839 20.71434 20.27316 19.83198 19.42986 19.40756 19.38527 19.38218 19.5826 19.78301 19.98494 20.20434 20.42375 20.56954 19.76972 18.9699 18.34206 20.17933 22.0166 23.88383 26.23592 28.58801 30.7864 30.13719 29.48799 28.67646 24.35574 20.03502 15.86949 15.71976 15.57002 15.43267 15.69284 15.95301 16.18697 15.31755 14.44813 13.58984 13.40786 13.22587 13.04368 12.84017 12.63666 12.43316 12.23497 12.03677 11.83858 13.83422 15.84045 17.84668 20.60261 23.3675 26.13239 23.83949 21.44965 19.0598 18.296 17.57527 16.85455 19.63654 22.53736 25.43818 26.55644 27.60079 28.64514 29.24556 29.82418 30.4028 30.95257 31.50071 32.04884 31.33115 30.53148 29.73181 27.16031 24.45989 21.75948 19.87626 18.05914 16.24202 15.73851 15.35207 14.96562 14.5932 14.22214 13.85108 12.09169 10.18516 8.278619 7.931064 7.762201 7.593337 8.706958 9.978822 11.25068 13.61295 16.11948 18.626 20.35211 21.96792 23.58372 22.84002 21.74111 20.64221 20.45979 20.4239 20.38802 18.84926 17.05594 15.26262 15.86484 16.89595 17.92705 19.59239 21.37749 23.1626 22.63218 21.64138 20.65057 20.69838 20.96323 21.22808 21.3967 21.54423 21.69175 19.9602 17.79685 15.63349 13.16566 10.62461 8.083555 8.761511 10.24856 11.73562 12.6644 13.44668 14.22896 15.50708 16.92089 18.33471 18.99879 19.44911 19.89942 18.99154 17.68054 16.36954 14.09786 11.52963 8.961408 8.432524 8.557834 8.683145 10.42978 12.7165 15.00322 14.98983 14.18133 13.37284 14.91095 17.29025 19.66956 21.32465 22.71066 24.09668 23.26665 21.58384 19.90103 17.75528 15.42509 13.09491 12.72326 13.15894 13.59461 14.83503 16.41851 18.002 18.8135 19.28478 19.75606 19.58653 19.12518 18.66384 19.0934 19.94203 20.79066 17.62298 12.50472 7.386458 7.506957 10.25356 13.00016 13.12838 11.9023 10.67621 9.233989 7.676454 6.118918 7.129042 9.551816 11.97459 13.34686 14.1233 14.89974 15.67627 16.45284 17.22942 17.34201 17.05465 16.7673 16.1499 15.3277 14.5055 14.75962 15.70166 16.6437 17.42481 18.10002 18.77523 18.46577 17.48905 16.51234 16.55124 17.29861 18.04598 19.28856 20.88671 22.48485 23.3247 23.60424 23.88378 24.06194 24.16301 24.26409 23.26954 21.41784 19.56614 15.28734 9.055087 2.822833 0 0 0
8.131125 5.404359 3.523391 4.534692 5.545993 6.080777 4.91882 3.756864 2.80335 2.623398 2.443446 2.494747 3.441434 4.38812 5.399532 6.672691 7.945849 9.113005 9.83191 10.55082 11.09065 10.83769 10.58472 10.30847 9.924152 9.539831 9.384648 10.34622 11.3078 12.36921 13.94233 15.51544 16.88279 17.13893 17.39507 17.6105 17.59386 17.57722 17.57143 17.63114 17.69085 17.47936 15.53376 13.58817 11.81781 11.2387 10.6596 10.51414 13.51184 16.50955 19.23745 19.8733 20.50915 21.04486 20.74675 20.44864 20.17746 20.14808 20.1187 20.08163 19.96985 19.85807 19.78426 20.11297 20.44167 20.81061 21.64712 22.48363 23.17921 22.06437 20.94953 19.98104 21.11023 22.23941 23.44273 25.84529 28.24784 30.47502 29.45333 28.43164 27.30672 23.95008 20.59345 17.3493 17.01562 16.68193 16.352 16.14276 15.93352 15.71955 15.30642 14.8933 14.48806 14.56143 14.63479 14.70556 14.49586 14.28617 14.0769 14.06217 14.04744 14.0327 15.6643 17.30385 18.9434 21.59995 24.26864 26.93734 25.25327 23.48577 21.71827 20.82244 19.9497 19.07696 19.57136 20.11213 20.65291 22.11751 23.62042 25.12333 27.04412 28.98543 30.92674 31.79671 32.60575 33.41478 32.6102 31.70111 30.79202 28.25981 25.6095 22.95919 21.03949 19.17888 17.31827 16.7095 16.21231 15.71511 15.34715 14.99179 14.63643 12.943 11.10775 9.272495 8.939173 8.778002 8.61683 9.357374 10.20918 11.06098 13.16317 15.43078 17.69839 19.5768 21.40019 23.22359 23.01968 22.51058 22.00148 21.64419 21.31118 20.97817 19.65962 18.17414 16.68865 17.2974 18.28108 19.26476 20.79119 22.4201 24.04902 23.52229 22.56697 21.61164 21.83432 22.30318 22.77204 23.09675 23.38984 23.68294 22.31719 20.57024 18.8233 15.86258 12.60997 9.357368 9.52461 10.55143 11.57825 12.81344 14.1033 15.39317 16.94746 18.57413 20.20079 20.454 20.3156 20.17719 18.98602 17.48238 15.97875 13.65818 11.08545 8.512715 8.118379 8.422845 8.72731 10.13962 11.92097 13.70233 14.16434 14.17029 14.17624 16.07697 18.65695 21.23692 22.50856 23.29412 24.07968 23.30342 21.92614 20.54886 18.99499 17.37078 15.74656 15.37461 15.51886 15.66312 16.01463 16.45451 16.89439 17.47773 18.12429 18.77085 18.61221 18.08688 17.56155 18.23779 19.47922 20.72064 18.20149 13.85596 9.510421 9.886157 12.62859 15.37102 14.77754 12.45861 10.13969 9.412811 9.535334 9.657856 10.46621 11.65188 12.83756 13.18601 13.0596 12.9332 13.77315 15.17799 16.58284 16.96865 16.74064 16.51263 15.8024 14.79293 13.78346 14.016 15.04234 16.06869 17.03363 17.95818 18.88272 18.74007 17.87425 17.00843 16.91687 17.36542 17.81397 18.71627 19.94436 21.17245 22.09063 22.77981 23.46899 24.04185 24.52626 25.01067 24.64511 23.61459 22.58408 18.04792 10.69025 3.332578 0 0 0
8.702053 5.121505 2.642025 3.927732 5.213439 5.944995 4.703377 3.461759 2.394294 1.973137 1.551981 1.392395 2.245577 3.09876 4.062317 5.472224 6.882132 8.210368 9.193249 10.17613 10.93266 10.68707 10.44149 10.11701 9.426321 8.735636 8.286618 9.015429 9.74424 10.59461 12.06803 13.54146 14.84978 15.26648 15.68319 16.08908 16.43333 16.77758 17.0555 16.93346 16.81141 16.40061 14.14339 11.88617 9.879315 9.574481 9.269647 9.411166 12.78807 16.16498 19.21836 19.76307 20.30779 20.75159 20.35524 19.95888 19.64058 20.02299 20.40541 20.73341 20.53214 20.33086 20.18635 20.64334 21.10033 21.63628 23.0899 24.54351 25.78888 24.35902 22.92916 21.62001 22.04112 22.46223 23.00163 25.45465 27.90766 30.16365 28.76947 27.37529 25.93697 23.54443 21.15189 18.82912 18.31147 17.79383 17.27132 16.59267 15.91402 15.25212 15.2953 15.33848 15.38628 15.715 16.04372 16.36743 16.15155 15.93567 15.72064 15.88937 16.0581 16.22683 17.49439 18.76725 20.04012 22.59728 25.16978 27.74229 26.66705 25.52189 24.37673 23.34887 22.32412 21.29938 19.50618 17.68691 15.86764 17.67859 19.64006 21.60153 24.84268 28.14668 31.45069 32.64085 33.71079 34.78072 33.88924 32.87074 31.85224 29.35931 26.75911 24.15891 22.20272 20.29862 18.39452 17.6805 17.07254 16.46459 16.1011 15.76143 15.42177 13.7943 12.03034 10.26637 9.947282 9.793802 9.640323 10.00779 10.43954 10.87128 12.71339 14.74208 16.77077 18.80148 20.83246 22.86345 23.19933 23.28004 23.36074 22.82859 22.19846 21.56833 20.46998 19.29233 18.11468 18.72995 19.66621 20.60248 21.98998 23.46271 24.93544 24.4124 23.49255 22.5727 22.97026 23.64313 24.31599 24.79679 25.23546 25.67413 24.67418 23.34364 22.0131 18.5595 14.59534 10.63118 10.28771 10.8543 11.42089 12.96248 14.75992 16.55737 18.38785 20.22736 22.06688 21.90921 21.18209 20.45496 18.98049 17.28422 15.58795 13.2185 10.64126 8.064023 7.804235 8.287855 8.771476 9.849465 11.12545 12.40143 13.33886 14.15925 14.97964 17.24301 20.02365 22.80429 23.69248 23.87759 24.06269 23.3402 22.26845 21.19669 20.23471 19.31646 18.39821 18.02597 17.87879 17.73162 17.19424 16.49051 15.78679 16.14197 16.96381 17.78565 17.63788 17.04857 16.45927 17.38218 19.0164 20.65062 18.78 15.20719 11.63438 12.26536 15.00362 17.74188 16.42669 13.01493 9.603162 9.591633 11.39421 13.19679 13.80337 13.75195 13.70052 13.02516 11.9959 10.96665 11.87002 13.90314 15.93627 16.59529 16.42663 16.25797 15.4549 14.25815 13.06141 13.27237 14.38302 15.49368 16.64246 17.81633 18.99021 19.01437 18.25945 17.50453 17.28251 17.43223 17.58195 18.14397 19.00202 19.86006 20.85657 21.95539 23.05421 24.02176 24.8895 25.75724 26.02068 25.81135 25.60201 20.8085 12.32541 3.842324 0 0 0
9.6286 5.636378 2.81663 4.006243 5.195856 5.912043 4.9425 3.972957 3.073788 2.435789 1.797791 1.481122 2.408602 3.336083 4.282056 5.302815 6.323574 7.342616 8.354397 9.366179 10.17838 10.10699 10.03559 9.838345 9.056929 8.275513 7.736523 8.379063 9.021602 9.772889 11.08159 12.39029 13.55856 13.96849 14.37842 14.80845 15.35303 15.89762 16.31296 15.94894 15.58491 14.95995 12.66652 10.37309 8.404006 8.639815 8.875625 9.482244 12.77667 16.07109 19.03389 19.42521 19.81654 20.13498 19.84657 19.55815 19.35825 19.9529 20.54755 21.06047 20.77829 20.49612 20.2763 20.71736 21.15841 21.70977 23.54313 25.3765 26.98564 25.71412 24.4426 23.24302 23.07463 22.90624 22.8475 24.56255 26.27761 27.85373 26.85594 25.85816 24.83386 23.23656 21.63926 20.07434 19.34754 18.62074 17.89586 17.23291 16.56995 15.93313 16.39648 16.85982 17.32354 17.80986 18.29619 18.77738 18.70697 18.63656 18.56676 18.77595 18.98514 19.19433 20.0767 20.96232 21.84794 23.977 26.12092 28.26484 27.19519 26.06394 24.93269 23.81368 22.69498 21.57629 19.4389 17.26695 15.095 15.95705 16.94489 17.93274 21.33751 24.86098 28.38446 30.60587 32.75322 34.90057 34.22423 33.36502 32.50582 30.14443 27.67375 25.20307 23.25797 21.35537 19.45277 18.64587 17.93663 17.22738 16.91573 16.64283 16.36994 14.89287 13.28817 11.68348 11.15195 10.74344 10.33492 10.30114 10.31359 10.32605 11.84362 13.56031 15.27699 17.5136 19.8237 22.13379 22.85805 23.34357 23.82909 23.24356 22.48678 21.73001 20.79075 19.82057 18.8504 19.44017 20.30923 21.17829 22.48928 23.88374 25.27819 24.69528 23.7192 22.74313 23.06024 23.64759 24.23494 24.81144 25.38555 25.95967 25.62272 25.07642 24.53011 21.22119 17.24793 13.27466 12.11546 11.66357 11.21169 12.6228 14.52279 16.42278 18.43103 20.46891 22.50678 22.34137 21.54772 20.75407 19.16641 17.34309 15.51976 13.14081 10.59033 8.039859 7.927417 8.597065 9.266712 9.886644 10.49002 11.09339 12.44002 14.04358 15.64715 17.85224 20.27298 22.69371 23.33172 23.3074 23.28308 22.69069 21.87969 21.0687 20.43587 19.87402 19.31217 18.91118 18.57649 18.24181 17.35598 16.23519 15.1144 15.41155 16.3336 17.25565 17.27106 16.87359 16.47613 17.51946 19.24049 20.96152 19.46848 16.41449 13.36049 14.23513 17.07912 19.92312 18.52339 14.92867 11.33396 11.23934 13.0121 14.78487 14.85167 13.9799 13.10813 12.47745 11.98352 11.48959 12.63287 14.73321 16.83356 17.4855 17.265 17.0445 16.28021 15.17847 14.07673 14.22649 15.17614 16.12578 16.95241 17.69809 18.44377 18.34783 17.68158 17.01532 16.88772 17.13587 17.38402 17.80248 18.34322 18.88396 19.85106 21.13321 22.41536 23.55376 24.58286 25.61195 26.04044 25.99906 25.95767 21.15972 12.53345 3.907177 0 0 0
10.73237 6.548802 3.517482 4.42636 5.335238 5.930336 5.408157 4.885978 4.295764 3.453064 2.610364 2.163426 3.24883 4.334234 5.277709 5.647236 6.016763 6.492247 7.415781 8.339314 9.126942 9.31287 9.498798 9.51623 8.751544 7.986858 7.459493 8.088766 8.71804 9.426044 10.5376 11.64916 12.637 12.95677 13.27654 13.64781 14.31272 14.97763 15.4575 14.82147 14.18544 13.33893 11.14655 8.954169 7.159526 8.068727 8.97793 10.13841 13.12027 16.10213 18.76699 18.97391 19.18083 19.35722 19.2795 19.20178 19.20276 19.91021 20.61765 21.2257 20.8669 20.50811 20.21071 20.56395 20.91719 21.4084 23.50323 25.59807 27.47826 26.60098 25.72371 24.85808 24.15928 23.46048 22.83638 23.42056 24.00474 24.54783 24.32961 24.11139 23.86364 22.97742 22.0912 21.20266 20.25414 19.30561 18.37349 17.96799 17.56248 17.18646 18.05197 18.91748 19.77861 20.37382 20.96903 21.56015 21.71078 21.86141 22.0121 22.19048 22.36886 22.54724 23.03389 23.52202 24.01015 25.5473 27.09698 28.64666 27.28197 25.86142 24.44087 23.25106 22.06736 20.88366 19.37058 17.84633 16.32208 15.58973 14.89021 14.19069 17.18261 20.35583 23.52905 27.13606 30.76774 34.39942 34.08873 33.52275 32.95676 30.77289 28.4713 26.16971 24.25939 22.38072 20.50205 19.60844 18.80263 17.99681 17.7606 17.57993 17.39925 16.11467 14.71308 13.3115 12.45458 11.6601 10.86561 10.41654 10.01009 9.603637 10.76454 12.1328 13.50106 15.97029 18.59514 21.21999 22.25714 23.05529 23.85344 23.27507 22.47661 21.67816 20.86751 20.0548 19.24209 19.79041 20.58241 21.3744 22.63998 23.995 25.35002 24.67554 23.59754 22.51954 22.62895 22.9865 23.34405 23.98616 24.69068 25.3952 25.86936 26.29059 26.71182 23.86534 20.23303 16.60072 14.47378 12.72522 10.97665 12.03957 13.84026 15.64094 17.77792 20.00694 22.23595 22.26368 21.66375 21.06382 19.44773 17.53004 15.61235 13.2435 10.73538 8.227261 8.268543 9.127642 9.986741 10.08695 9.934363 9.781776 11.50463 13.87578 16.24693 18.184 19.96547 21.74693 22.20116 22.16229 22.12342 21.69917 21.12662 20.55406 20.11945 19.7398 19.36014 18.91623 18.44582 17.97542 17.01047 15.83468 14.6589 14.98282 15.96766 16.9525 17.20698 17.12885 17.05073 18.15154 19.80689 21.46224 20.21177 17.55005 14.88833 16.00086 19.00536 22.00986 20.84313 17.51891 14.19468 13.61906 14.5099 15.40073 14.75931 13.27488 11.79045 11.73696 12.49507 13.25318 14.72432 16.61228 18.50024 19.00541 18.67767 18.34993 17.69 16.82393 15.95786 16.0267 16.69308 17.35945 17.61178 17.59161 17.57144 17.21241 16.62375 16.03509 16.11397 16.65852 17.20307 17.57601 17.82573 18.07544 18.95945 20.31215 21.66484 22.86253 23.94237 25.0222 25.38453 25.18556 24.98658 20.31023 12.03027 3.750317 0 0 0
11.83614 7.461226 4.218334 4.846477 5.474619 5.948629 5.873814 5.798999 5.517741 4.47034 3.422938 2.845731 4.089058 5.332385 6.273363 5.991658 5.709953 5.641879 6.477164 7.31245 8.075502 8.518754 8.962006 9.194114 8.446159 7.698204 7.182463 7.79847 8.414477 9.079199 9.993613 10.90803 11.71544 11.94505 12.17465 12.48718 13.27242 14.05765 14.60203 13.694 12.78597 11.71791 9.626575 7.535245 5.915045 7.49764 9.080235 10.79457 13.46387 16.13316 18.5001 18.52261 18.54511 18.57946 18.71244 18.84542 19.04727 19.86751 20.68775 21.39093 20.95551 20.5201 20.14511 20.41054 20.67597 21.10704 23.46334 25.81964 27.97088 27.48785 27.00482 26.47313 25.24393 24.01472 22.82525 22.27856 21.73187 21.24193 21.80328 22.36463 22.89341 22.71828 22.54314 22.33097 21.16073 19.99049 18.85112 18.70306 18.55501 18.4398 19.70747 20.97514 22.23368 22.93778 23.64188 24.34292 24.71459 25.08626 25.45744 25.60501 25.75258 25.90015 25.99107 26.08172 26.17236 27.11759 28.07303 29.02847 27.36875 25.6589 23.94905 22.68844 21.43974 20.19104 19.30227 18.42571 17.54915 15.2224 12.83552 10.44864 13.02771 15.85068 18.67365 23.66625 28.78226 33.89827 33.95324 33.68047 33.4077 31.40134 29.26884 27.13635 25.26082 23.40607 21.55132 20.57101 19.66863 18.76624 18.60548 18.51702 18.42856 17.33646 16.13799 14.93952 13.75721 12.57676 11.39631 10.53195 9.706584 8.881224 9.685467 10.7053 11.72513 14.42698 17.36658 20.30618 21.65624 22.76702 23.87779 23.30658 22.46644 21.62631 20.94428 20.28903 19.63379 20.14066 20.85559 21.57052 22.79068 24.10626 25.42184 24.6558 23.47588 22.29596 22.19767 22.32541 22.45316 23.16089 23.9958 24.83072 26.116 27.50477 28.89354 26.50948 23.21813 19.92678 16.83211 13.78686 10.74162 11.45634 13.15772 14.8591 17.12481 19.54496 21.96512 22.18599 21.77978 21.37357 19.72905 17.717 15.70495 13.3462 10.88043 8.414662 8.60967 9.658219 10.70677 10.28726 9.378713 8.470166 10.56924 13.70798 16.84672 18.51576 19.65796 20.80015 21.0706 21.01718 20.96376 20.70765 20.37354 20.03943 19.80304 19.60558 19.40812 18.92127 18.31515 17.70902 16.66495 15.43418 14.20341 14.55409 15.60172 16.64935 17.14289 17.38411 17.62532 18.78362 20.37329 21.96296 20.95506 18.68561 16.41617 17.76659 20.9316 24.09661 23.16287 20.10914 17.0554 15.99879 16.00769 16.01659 14.66694 12.56986 10.47278 10.99647 13.00662 15.01676 16.81577 18.49134 20.16692 20.52533 20.09034 19.65536 19.09978 18.46939 17.83899 17.82691 18.21002 18.59312 18.27115 17.48514 16.69912 16.07699 15.56592 15.05485 15.34022 16.18117 17.02212 17.34953 17.30823 17.26693 18.06784 19.49108 20.91433 22.17131 23.30188 24.43244 24.72863 24.37206 24.01548 19.46074 11.5271 3.593457 0 0 0
13.53603 9.486228 6.251054 5.801574 5.352095 5.102445 5.564334 6.026222 6.216467 5.3986 4.580733 4.180298 5.39611 6.611922 7.450357 6.762699 6.07504 5.644972 6.304154 6.963335 7.592105 8.086235 8.580365 8.861849 8.15629 7.450731 6.940053 7.379174 7.818295 8.321381 9.15232 9.983259 10.70782 10.85789 11.00797 11.22098 11.79274 12.3645 12.71759 11.75201 10.78643 9.745676 8.224247 6.702818 5.609541 7.426888 9.244235 11.11656 13.3874 15.65824 17.65305 17.50746 17.36187 17.26983 17.62368 17.97752 18.41537 19.60736 20.79936 21.87343 21.80058 21.72773 21.68942 22.01724 22.34505 22.80025 24.73599 26.67172 28.43315 27.95526 27.47738 26.92213 25.25811 23.59409 21.94759 20.58468 19.22176 18.00051 19.40382 20.80714 22.16508 22.54209 22.91911 23.24434 22.22986 21.21537 20.23186 20.24274 20.25362 20.29326 21.5434 22.79354 24.03396 24.68356 25.33316 25.98155 26.49997 27.01839 27.53588 27.63137 27.72686 27.82235 27.6664 27.50924 27.35208 28.03707 28.73212 29.42717 27.49203 25.50647 23.52091 22.26671 21.03189 19.79706 19.47409 19.18204 18.89 16.82467 14.6858 12.54693 13.39646 14.39277 15.38909 20.80531 26.47293 32.14056 32.96088 33.4673 33.97371 32.05531 29.96048 27.86565 25.90591 23.95708 22.00826 21.09934 20.28309 19.46684 19.40376 19.41411 19.42446 18.49861 17.47353 16.44846 14.93901 13.37404 11.80907 10.76123 9.777196 8.793162 9.345037 10.1001 10.85517 13.40893 16.21693 19.02493 20.51838 21.81393 23.10949 22.60118 21.80447 21.00775 20.10172 19.17717 18.25262 18.65851 19.3026 19.94668 21.20462 22.57848 23.95234 22.90017 21.36563 19.8311 19.7942 20.07027 20.34634 21.13847 22.04378 22.94909 24.81866 26.90983 29.00099 27.30562 24.69966 22.0937 18.42027 14.47853 10.53679 11.17324 13.01105 14.84887 17.12211 19.5145 21.90689 22.01295 21.4671 20.92125 19.44219 17.68616 15.93012 13.81304 11.58452 9.355989 9.491412 10.38516 11.27891 10.27239 8.632858 6.993328 9.459254 13.34435 17.22944 18.83755 19.62942 20.42128 20.41099 20.10267 19.79436 19.66662 19.60837 19.55013 19.48186 19.40961 19.33736 18.8485 18.18791 17.52732 16.49485 15.30386 14.11286 14.41515 15.37554 16.33593 17.07578 17.7152 18.35461 19.36725 20.55544 21.74363 20.6354 18.41189 16.18837 17.56702 20.75139 23.93575 23.35936 20.83778 18.3162 17.07089 16.50652 15.94215 14.2728 11.99553 9.718257 10.77467 13.72188 16.66909 18.70166 20.19956 21.69746 21.78038 21.011 20.24161 19.46517 18.68435 17.90354 17.58315 17.55703 17.53091 16.83245 15.69147 14.55049 14.02517 13.91706 13.80894 14.54735 15.87629 17.20523 17.85323 18.01232 18.1714 18.93344 20.141 21.34857 22.46149 23.50245 24.5434 24.80749 24.46381 24.12013 19.55079 11.58044 3.610086 0 0 0
15.54247 12.08336 8.968675 7.031781 5.094887 3.811713 4.856246 5.90078 6.646117 6.281085 5.916054 5.850285 6.943223 8.03616 8.720604 7.753124 6.785644 6.08695 6.524848 6.962746 7.400818 7.839664 8.278511 8.524364 7.874399 7.224434 6.715446 6.893541 7.071638 7.352223 8.158139 8.964056 9.655929 9.731944 9.807959 9.900483 10.08712 10.27376 10.304 9.391155 8.478311 7.592841 6.882416 6.171992 5.786897 7.613429 9.439961 11.2667 13.09492 14.92315 16.50766 16.20237 15.89707 15.6867 16.26664 16.84658 17.53848 19.23539 20.93231 22.51909 23.03464 23.5502 24.06161 24.52905 24.9965 25.51916 26.6836 27.84805 28.8798 28.20697 27.53414 26.77151 24.72182 22.67213 20.62433 18.60699 16.58964 14.79225 17.06962 19.34699 21.56114 22.40857 23.25601 24.04718 23.38256 22.71794 22.077 22.19616 22.31533 22.45532 23.47212 24.48892 25.49752 26.00859 26.51967 27.03181 27.65878 28.28576 28.91142 28.94389 28.97635 29.00882 28.68256 28.35456 28.02657 28.62188 29.22822 29.83456 27.63408 25.3798 23.12552 21.91743 20.73705 19.55667 19.76939 20.02938 20.28936 19.43976 18.54415 17.64855 16.09146 14.50188 12.91231 18.25747 23.99708 29.73669 31.52789 33.0634 34.5989 32.7224 30.59765 28.4729 26.36774 24.26416 22.16059 21.40436 20.7682 20.13204 20.17808 20.29063 20.40317 19.63008 18.76312 17.89616 16.05867 14.10993 12.16119 11.04908 10.04019 9.031311 9.384449 9.917774 10.4511 12.66099 15.10786 17.55473 19.10438 20.51897 21.93356 21.51683 20.8073 20.09777 18.7864 17.37309 15.95978 16.23408 16.81051 17.38694 18.72544 20.20784 21.69024 20.25188 18.23278 16.21368 16.37654 16.99539 17.61424 18.50045 19.44529 20.39013 22.72736 25.38456 28.04177 27.15143 25.40799 23.66455 19.61239 14.97994 10.34749 11.04447 13.13995 15.23544 17.45386 19.70594 21.95801 21.79088 20.93396 20.07704 18.86315 17.54331 16.22348 14.46715 12.57608 10.68501 10.65116 11.21308 11.775 10.14687 7.789195 5.431521 8.259486 12.88001 17.50053 19.15421 19.74434 20.33446 19.99356 19.30676 18.61995 18.60014 18.83699 19.07385 19.15825 19.1819 19.20556 18.73571 18.06244 17.38916 16.41496 15.31248 14.20999 14.42524 15.22123 16.01721 17.0071 18.08528 19.16346 19.92597 20.54 21.15402 19.76914 17.41344 15.05775 16.35682 19.48796 22.61909 22.46398 20.60911 18.75424 17.47057 16.49165 15.51273 13.72347 11.4884 9.253332 10.8196 14.54191 18.26422 20.48186 21.81993 23.158 22.89924 21.67864 20.45804 19.29348 18.1637 17.03392 16.28829 15.78818 15.28806 14.31482 13.03017 11.74553 11.5021 11.96425 12.4264 13.74465 15.6601 17.57555 18.73241 19.34458 19.95676 20.70266 21.54737 22.39207 23.25636 24.13552 25.01469 25.26419 25.02107 24.77796 20.124 11.91996 3.715929 0 0 0
17.54891 14.68049 11.68629 8.261987 4.837679 2.520981 4.148159 5.775338 7.075767 7.163571 7.251375 7.520271 8.490335 9.460398 9.990851 8.743549 7.496248 6.528928 6.745542 6.962156 7.209531 7.593094 7.976657 8.18688 7.592508 6.998137 6.490839 6.407909 6.324979 6.383066 7.16396 7.944853 8.604041 8.605995 8.607949 8.579988 8.3815 8.183012 7.890414 7.030304 6.170194 5.440007 5.540586 5.641165 5.964252 7.79997 9.635688 11.41684 12.80245 14.18806 15.36227 14.89727 14.43227 14.10357 14.90961 15.71564 16.66158 18.86342 21.06526 23.16474 24.26871 25.37267 26.4338 27.04087 27.64794 28.23807 28.63122 29.02437 29.32646 28.45868 27.59089 26.62088 24.18553 21.75018 19.30106 16.62929 13.95753 11.58399 14.73541 17.88683 20.95719 22.27505 23.59291 24.85002 24.53526 24.22051 23.92214 24.14959 24.37704 24.61739 25.40084 26.18429 26.96108 27.33363 27.70618 28.08207 28.81759 29.55312 30.28696 30.2564 30.22585 30.19529 29.69871 29.19988 28.70106 29.20668 29.72431 30.24194 27.77613 25.25313 22.73013 21.56814 20.44221 19.31628 20.0647 20.87671 21.68872 22.05486 22.40251 22.75016 18.78646 14.611 10.43553 15.70964 21.52123 27.33282 30.0949 32.65949 35.22409 33.38949 31.23482 29.08015 26.82958 24.57125 22.31292 21.70938 21.25331 20.79725 20.9524 21.16714 21.38189 20.76155 20.05271 19.34387 17.17833 14.84582 12.51331 11.33692 10.30319 9.26946 9.423861 9.735445 10.04703 11.91305 13.99879 16.08453 17.69039 19.22402 20.75764 20.43248 19.81014 19.18779 17.47108 15.56901 13.66694 13.80964 14.31843 14.82721 16.24625 17.8372 19.42814 17.60358 15.09992 12.59626 12.95889 13.92052 14.88214 15.86242 16.84679 17.83116 20.63605 23.8593 27.08254 26.99725 26.11632 25.23539 20.80451 15.48135 10.15819 10.9157 13.26885 15.622 17.78562 19.89737 22.00912 21.56881 20.40081 19.23282 18.28411 17.40047 16.51684 15.12126 13.56765 12.01404 11.81091 12.041 12.27109 10.02135 6.94553 3.869715 7.059719 12.41568 17.77163 19.47087 19.85926 20.24764 19.57613 18.51084 17.44554 17.53365 18.06561 18.59758 18.83463 18.95419 19.07375 18.62292 17.93696 17.25101 16.33507 15.32109 14.30711 14.43533 15.06691 15.6985 16.93842 18.45536 19.97231 20.48469 20.52455 20.56441 18.90287 16.415 13.92714 15.14662 18.22453 21.30243 21.5686 20.38045 19.19229 17.87025 16.47678 15.0833 13.17415 10.98128 8.788407 10.86452 15.36193 19.85934 22.26206 23.4403 24.61853 24.0181 22.34628 20.67447 19.1218 17.64305 16.16431 14.99343 14.01932 13.04522 11.79719 10.36888 8.940564 8.979032 10.01145 11.04386 12.94195 15.44392 17.94588 19.61158 20.67685 21.74212 22.47188 22.95373 23.43558 24.05122 24.7686 25.48599 25.72089 25.57834 25.43579 20.6972 12.25949 3.821773 0 0 0
19.66603 17.33123 14.67091 10.89745 7.12399 4.366961 5.229148 6.091336 6.765119 6.7397 6.714282 6.908895 7.955441 9.001988 9.576828 8.244114 6.9114 5.910817 6.314684 6.71855 7.109365 7.442397 7.775428 7.961133 7.46299 6.964848 6.50365 6.222514 5.941377 5.798182 6.362038 6.925893 7.414102 7.493802 7.573503 7.576551 7.142646 6.708741 6.234046 5.513369 4.792693 4.251097 4.854611 5.458125 6.240519 8.238955 10.23739 12.13016 13.25695 14.38373 15.32154 14.79391 14.26629 13.91737 15.05624 16.19512 17.48465 20.12665 22.76866 25.26706 26.36867 27.47029 28.50108 28.78119 29.06129 29.3101 29.19504 29.07998 28.88966 27.73242 26.57518 25.31287 22.54454 19.77621 17.03133 14.66566 12.29999 10.21673 13.36563 16.51453 19.59352 21.16119 22.72887 24.23928 24.26813 24.29698 24.33243 24.5799 24.82736 25.08599 25.81471 26.54343 27.26418 27.50048 27.73678 27.97586 28.51414 29.05242 29.5896 29.6302 29.6708 29.71139 29.13925 28.56415 27.98904 28.51105 29.04617 29.58129 27.45968 25.28714 23.1146 22.24507 21.41006 20.57505 20.96897 21.40458 21.84019 22.60368 23.38077 24.15785 20.15421 15.91575 11.67729 15.31067 19.39181 23.47294 27.47669 31.47543 35.47417 33.90119 31.92283 29.94447 27.37138 24.75019 22.12901 21.66965 21.40297 21.13628 21.41448 21.7458 22.07712 21.45148 20.72441 19.99734 17.67652 15.17303 12.66954 11.57793 10.66052 9.743109 10.13764 10.70573 11.27382 12.92469 14.72861 16.53252 17.72974 18.83564 19.94153 19.98205 19.85224 19.72242 18.02618 16.06461 14.10304 14.06956 14.38127 14.69298 15.9984 17.49149 18.98458 16.8102 13.90664 11.00307 11.44129 12.57786 13.71443 14.4237 15.03926 15.65483 18.81343 22.55642 26.2994 26.74044 26.38743 26.03442 21.72577 16.42287 11.11997 11.88403 14.24012 16.59622 18.80901 20.98258 23.15615 22.28589 20.54775 18.8096 18.08275 17.65606 17.22936 16.4605 15.58602 14.71154 14.19912 13.80285 13.40657 10.92092 7.739262 4.557606 7.66692 12.95088 18.23484 19.9852 20.46884 20.95248 20.01572 18.55125 17.08678 16.93273 17.28296 17.63319 17.87673 18.07777 18.27881 17.93778 17.3733 16.80882 16.0828 15.28791 14.49302 14.55866 15.00352 15.44839 16.62507 18.13501 19.64495 19.73212 19.15007 18.56801 16.75121 14.33473 11.91824 13.04885 15.95755 18.86624 19.40321 18.71343 18.02366 16.94315 15.65416 14.36517 12.62076 10.62579 8.630816 10.9873 15.81185 20.6364 22.96539 23.83556 24.70573 24.04451 22.46086 20.87721 19.57534 18.44831 17.32128 16.13982 14.92358 13.70733 12.29865 10.76332 9.227986 9.303667 10.47104 11.6384 13.593 16.09674 18.60049 20.36918 21.6101 22.85101 23.60952 24.01158 24.41363 24.92445 25.51795 26.11146 25.19232 23.08981 20.98729 16.35539 9.687718 3.020049 0 0 0
21.84186 20.0104 17.79715 14.27835 10.75955 7.876864 7.259184 6.641503 6.061767 5.622851 5.183935 5.08733 6.316113 7.544896 8.269355 6.954357 5.639358 4.730363 5.538198 6.346032 7.057537 7.342556 7.627577 7.794658 7.4143 7.033942 6.642405 6.196384 5.750364 5.417143 5.662103 5.907062 6.15093 6.388906 6.626881 6.741302 6.151395 5.561488 4.979356 4.444103 3.908851 3.573519 4.516546 5.459573 6.569253 8.811855 11.05446 13.14223 14.10769 15.07315 15.86679 15.32804 14.78929 14.47219 16.00052 17.52886 19.20948 22.25731 25.30513 28.14208 28.92797 29.71387 30.40662 30.11225 29.81788 29.50851 29.0248 28.54109 27.98421 26.48738 24.99055 23.3909 20.31755 17.2442 14.25953 12.70948 11.15942 9.826076 12.50745 15.18883 17.82683 19.5273 21.22777 22.8787 23.24783 23.61695 23.98159 24.20223 24.42288 24.65625 25.425 26.19374 26.95168 27.05294 27.1542 27.25618 27.435 27.61381 27.79263 27.97556 28.15849 28.34142 27.74397 27.14276 26.54154 27.1362 27.74514 28.35408 26.90001 25.40639 23.91277 23.46637 23.04772 22.62907 22.19627 21.76299 21.32971 22.05642 22.83123 23.60604 20.81789 17.85474 14.8916 16.05161 17.44615 18.84069 24.22976 29.87752 35.52527 34.33046 32.6378 30.94514 27.9556 24.86116 21.76673 21.44706 21.37467 21.30229 21.71092 22.16644 22.62197 21.90717 21.06833 20.22949 17.84506 15.28346 12.72187 11.79408 11.06788 10.34168 11.20915 12.28745 13.36574 14.86973 16.4339 17.99806 18.54005 18.92817 19.31628 19.86789 20.44563 21.02337 19.57346 17.78011 15.98675 15.75343 15.79941 15.84539 16.93419 18.21994 19.50568 17.0008 13.74223 10.48366 10.93159 12.15408 13.37658 13.62118 13.65133 13.68148 17.13334 21.3715 25.60967 26.4292 26.42661 26.42403 22.50335 17.59785 12.69235 13.43432 15.65824 17.88217 20.19929 22.54191 24.88453 23.50118 21.05544 18.6097 18.08175 18.123 18.16425 18.16319 18.14908 18.13497 17.23899 16.06011 14.88123 12.36427 9.401579 6.438887 9.232659 14.01631 18.79996 20.60439 21.34082 22.07725 20.90993 19.03531 17.1607 16.57878 16.49433 16.40987 16.58237 16.85723 17.13209 16.94902 16.57719 16.20536 15.73909 15.23256 14.72603 14.74205 14.98837 15.23468 16.18194 17.4484 18.71487 18.28395 17.05465 15.82535 13.91769 11.68057 9.443453 10.48025 13.15822 15.83618 16.56411 16.28342 16.00274 15.31223 14.40306 13.4939 12.06523 10.35074 8.636252 11.15137 16.06543 20.9795 23.09748 23.58095 24.06443 23.49143 22.28206 21.0727 20.36054 19.95691 19.55329 18.58121 17.24583 15.91044 14.40165 12.77873 11.15582 11.13892 12.21032 13.28172 15.01521 17.21056 19.4059 21.06228 22.33167 23.60106 24.41214 24.88456 25.35698 25.83924 26.32898 26.81873 24.1411 18.98557 13.83003 9.406314 5.571603 1.736891 0 0 0
24.01769 22.68958 20.9234 17.65926 14.39512 11.38677 9.289219 7.19167 5.358416 4.506002 3.653588 3.265765 4.676785 6.087804 6.961882 5.664599 4.367316 3.54991 4.761712 5.973514 7.005708 7.242717 7.479726 7.628183 7.36561 7.103037 6.78116 6.170255 5.55935 5.036104 4.962167 4.88823 4.887758 5.284009 5.68026 5.906052 5.160143 4.414235 3.724666 3.374838 3.02501 2.895941 4.178481 5.461021 6.897987 9.384755 11.87152 14.1543 14.95844 15.76258 16.41204 15.86217 15.31229 15.02702 16.94481 18.8626 20.93432 24.38796 27.8416 31.0171 31.48727 31.95744 32.31216 31.44331 30.57446 29.70692 28.85456 28.0022 27.07877 25.24235 23.40592 21.46893 18.09056 14.71219 11.48773 10.7533 10.01886 9.435416 11.64927 13.86312 16.06015 17.89341 19.72668 21.51812 22.22752 22.93692 23.63074 23.82458 24.01841 24.22651 25.03529 25.84406 26.63918 26.6054 26.57163 26.5365 26.35585 26.1752 25.99567 26.32093 26.64619 26.97146 26.3487 25.72137 25.09403 25.76134 26.44411 27.12688 26.34034 25.52564 24.71093 24.68768 24.68539 24.6831 23.42357 22.1214 20.81923 21.50916 22.28169 23.05422 21.48157 19.79374 18.10591 16.79256 15.5005 14.20845 20.98284 28.27961 35.57637 34.75973 33.35278 31.94582 28.53982 24.97214 21.40446 21.22446 21.34638 21.4683 22.00736 22.58709 23.16681 22.36286 21.41225 20.46165 18.01359 15.39389 12.7742 12.01023 11.47525 10.94026 12.28066 13.86916 15.45766 16.81477 18.13918 19.46359 19.35036 19.0207 18.69104 19.75373 21.03902 22.32432 21.12075 19.49561 17.87047 17.43731 17.21756 16.9978 17.86999 18.94839 20.02678 17.19139 13.57782 9.964252 10.42188 11.7303 13.03872 12.81865 12.26339 11.70812 15.45324 20.18659 24.91993 26.11795 26.4658 26.81364 23.28092 18.77283 14.26473 14.98461 17.07636 19.16812 21.58956 24.10123 26.6129 24.71646 21.56314 18.40981 18.08075 18.58994 19.09913 19.86589 20.71214 21.5584 20.27885 18.31737 16.35588 13.80762 11.0639 8.320168 10.7984 15.08174 19.36509 21.22357 22.2128 23.20203 21.80414 19.51937 17.23461 16.22483 15.70569 15.18656 15.28801 15.63669 15.98537 15.96027 15.78108 15.6019 15.39538 15.17721 14.95903 14.92545 14.97321 15.02097 15.73881 16.7618 17.78478 16.83579 14.95924 13.08269 11.08417 9.026415 6.96866 7.911659 10.35889 12.80611 13.72501 13.85341 13.98181 13.6813 13.15196 12.62262 11.50969 10.07569 8.641689 11.31543 16.31902 21.3226 23.22956 23.32634 23.42312 22.93834 22.10326 21.26818 21.14574 21.46552 21.7853 21.02261 19.56808 18.11354 16.50464 14.79415 13.08365 12.97417 13.9496 14.92504 16.43742 18.32437 20.21132 21.75538 23.05325 24.35111 25.21476 25.75754 26.30032 26.75403 27.14001 27.52599 23.08988 14.88133 6.672773 2.45724 1.455487 0.4537335 0 0 0
25.4694 24.44812 22.98005 19.98412 16.9882 14.13828 11.80829 9.478292 7.417487 6.355699 5.293911 4.680871 5.80533 6.92979 7.539264 6.066169 4.593074 3.602955 4.655155 5.707354 6.602741 6.803873 7.005005 7.147384 7.01705 6.886715 6.705484 6.276196 5.846909 5.410686 4.938908 4.46713 4.14615 4.639509 5.132868 5.483024 5.016847 4.550671 4.110736 3.829043 3.54735 3.463079 4.64119 5.819301 7.184266 9.819483 12.4547 14.8582 15.58213 16.30606 16.86693 16.16338 15.45982 15.06217 17.21138 19.36059 21.64502 25.14332 28.64161 31.83439 32.05544 32.2765 32.37069 31.12045 29.87021 28.62212 27.39908 26.17604 24.90545 23.02407 21.14268 19.1962 16.31662 13.43705 10.72135 10.65687 10.59239 10.61455 12.24193 13.86931 15.48443 16.83448 18.18452 19.51845 20.43546 21.35247 22.24507 22.35385 22.46262 22.58971 23.48788 24.38606 25.26464 24.954 24.64336 24.33153 23.89139 23.45126 23.01389 23.83188 24.64986 25.46785 25.08938 24.70513 24.32089 24.6416 24.97073 25.29986 24.65708 23.99567 23.33426 23.62188 23.93464 24.24741 22.88348 21.46268 20.04186 20.87015 21.7917 22.71324 22.00601 21.21878 20.43155 17.23514 13.90171 10.56828 18.14129 26.4206 34.6999 34.45308 33.58591 32.71875 29.30554 25.6864 22.06727 22.00512 22.25996 22.5148 23.06281 23.63939 24.21598 23.21769 22.05247 20.88725 18.36691 15.69125 13.01558 12.42192 12.08516 11.74839 13.43089 15.38052 17.33016 18.47283 19.50144 20.53006 19.8144 18.83616 17.85793 19.0701 20.63247 22.19485 21.66411 20.77884 19.89357 19.69008 19.60867 19.52725 20.34366 21.32963 22.3156 19.71164 16.39389 13.07614 13.2499 14.15331 15.05673 14.54941 13.73272 12.91603 16.48835 21.06927 25.65018 26.71735 26.93954 27.16172 24.08326 20.17519 16.26711 16.63958 18.13531 19.63103 22.11494 24.86929 27.62364 25.62679 22.27523 18.92367 18.57713 19.12249 19.66785 20.9032 22.35155 23.7999 22.51761 20.35936 18.2011 15.81812 13.36026 10.90241 12.79144 16.18308 19.57473 21.19477 22.17974 23.16471 21.7975 19.55639 17.31528 16.05252 15.16626 14.28 14.18777 14.41186 14.63595 14.79996 14.9392 15.07844 15.09776 15.06595 15.03415 14.9524 14.84864 14.74488 15.06426 15.57633 16.0884 14.82999 12.73881 10.64763 9.1833 8.023414 6.863526 7.533322 9.120308 10.70729 11.29957 11.37735 11.45513 11.42786 11.34455 11.26124 10.87798 10.32968 9.781389 12.4032 16.82304 21.24288 22.6713 22.35103 22.03076 21.61577 21.14372 20.67167 20.91622 21.60543 22.29464 21.7988 20.54557 19.29233 18.05163 16.81918 15.58673 15.64195 16.56977 17.49758 18.70173 20.09864 21.49556 22.69 23.73907 24.78815 25.47001 25.88055 26.29108 26.65379 26.98014 27.30649 22.328 13.19939 4.070785 0 0 0 0 0 0
26.52498 25.70304 24.45158 21.73128 19.01099 16.47493 14.59488 12.71483 10.98773 9.828233 8.668736 7.866585 8.44803 9.029477 9.147749 7.392973 5.638197 4.330782 4.915079 5.499376 6.007687 6.179579 6.351471 6.494635 6.504446 6.514257 6.512503 6.454386 6.396268 6.198626 5.285821 4.373015 3.689861 4.246867 4.803874 5.2855 5.337422 5.389344 5.394377 5.116657 4.838936 4.711134 5.541958 6.372783 7.447318 10.17862 12.90993 15.39353 16.08162 16.76972 17.27239 16.33717 15.40195 14.81302 17.10721 19.4014 21.80094 25.14633 28.49171 31.526 31.53438 31.54275 31.41883 29.89282 28.36681 26.83535 25.24051 23.64568 22.03854 20.27338 18.50821 16.73158 14.79053 12.84948 11.05204 11.57782 12.10361 12.65244 13.62828 14.60411 15.56023 16.09007 16.6199 17.16917 18.22122 19.27328 20.29331 20.28516 20.277 20.29259 21.30717 22.32175 23.30912 22.64403 21.97894 21.31403 20.66911 20.02418 19.38398 20.88636 22.38874 23.89113 23.90443 23.91054 23.91665 23.66142 23.40307 23.14472 22.35917 21.5635 20.76784 21.30493 21.87734 22.44974 21.37655 20.24753 19.11851 20.18096 21.33429 22.48761 22.45427 22.36265 22.27103 17.51452 12.49267 7.470816 15.5215 24.41875 33.31601 33.74385 33.55547 33.3671 30.17055 26.7307 23.29085 23.33459 23.68878 24.04297 24.53347 25.03725 25.54104 24.29086 22.85477 21.41868 18.82132 16.09085 13.36038 12.94057 12.80587 12.67117 14.62419 16.85341 19.08262 19.97389 20.67605 21.37822 20.08903 18.50006 16.9111 18.07494 19.6789 21.28286 21.65827 21.82559 21.99291 22.25407 22.53203 22.80999 23.65863 24.61504 25.57145 23.50632 20.84042 18.17451 17.90381 18.13365 18.36349 17.66598 16.7651 15.86423 19.0088 23.08302 27.15723 27.81492 27.651 27.48707 24.89914 21.70193 18.50472 18.35181 18.99776 19.64371 22.16719 25.20449 28.2418 26.3703 23.09915 19.82799 19.34561 19.69093 20.03625 21.57653 23.48568 25.39483 24.31812 22.28358 20.24904 18.13886 16.00349 13.86812 15.01824 17.30407 19.5899 20.8115 21.65159 22.49168 21.29805 19.34885 17.39964 15.97959 14.76316 13.54673 13.19372 13.18468 13.17564 13.5458 14.07228 14.59875 14.82536 14.92412 15.02289 14.89377 14.66422 14.43466 14.26311 14.11796 13.97281 12.51915 10.44999 8.380841 7.792634 7.923669 8.054706 8.353158 8.735534 9.117909 9.100413 8.87609 8.651768 8.833872 9.232815 9.631758 10.20459 10.87309 11.54158 13.99628 17.46407 20.93186 21.73539 20.98147 20.22755 19.87226 19.75708 19.64191 20.13159 20.9966 21.8616 21.66406 20.78742 19.91077 19.29445 18.84947 18.40449 18.76518 19.67181 20.57845 21.4267 22.23422 23.04174 23.75676 24.40535 25.05394 25.42584 25.59328 25.76073 25.99828 26.28915 26.58002 21.7244 12.84257 3.960739 0 0 0 0 0 0
27.58055 26.95797 25.92311 23.47844 21.03378 18.81157 17.38147 15.95137 14.55797 13.30077 12.04356 11.0523 11.09073 11.12916 10.75623 8.719777 6.683321 5.058609 5.175004 5.291399 5.412632 5.555285 5.697937 5.841886 5.991842 6.141799 6.319523 6.632576 6.945628 6.986567 5.632734 4.278901 3.233572 3.854225 4.474879 5.087976 5.657996 6.228016 6.678019 6.404271 6.130523 5.959189 6.442727 6.926265 7.710371 10.53776 13.36516 15.92885 16.58111 17.23338 17.67784 16.51096 15.34408 14.56388 17.00304 19.4422 21.95686 25.14933 28.34181 31.21761 31.01331 30.80901 30.46697 28.66519 26.86341 25.04857 23.08195 21.11532 19.17163 17.52269 15.87375 14.26696 13.26444 12.26191 11.38272 12.49877 13.61483 14.69033 15.01462 15.33892 15.63603 15.34566 15.05528 14.81989 16.00698 17.19408 18.34154 18.21647 18.09139 17.99546 19.12646 20.25745 21.3536 20.33405 19.31451 18.29653 17.44682 16.5971 15.75406 17.94084 20.12763 22.31441 22.71948 23.11594 23.51241 22.68125 21.83541 20.98958 20.06125 19.13133 18.20142 18.98798 19.82003 20.65207 19.86961 19.03238 18.19515 19.49177 20.87687 22.26198 22.90253 23.50652 24.11051 17.79389 11.08362 4.373356 12.90171 22.41691 31.93211 33.03461 33.52503 34.01545 31.03555 27.77499 24.51443 24.66406 25.1176 25.57115 26.00413 26.43511 26.8661 25.36403 23.65707 21.95012 19.27573 16.49046 13.70518 13.45923 13.52659 13.59395 15.8175 18.32629 20.83508 21.47495 21.85066 22.22637 20.36365 18.16397 15.96428 17.07978 18.72532 20.37087 21.65243 22.87234 24.09226 24.81806 25.4554 26.09274 26.9736 27.90045 28.8273 27.301 25.28694 23.27289 22.55772 22.11398 21.67025 20.78255 19.79749 18.81243 21.52925 25.09677 28.66428 28.91248 28.36246 27.81243 25.71502 23.22868 20.74234 20.06405 19.86021 19.65638 22.21943 25.5397 28.85996 27.11381 23.92306 20.73232 20.11408 20.25936 20.40465 22.24986 24.61981 26.98976 26.11863 24.2078 22.29697 20.45961 18.64672 16.83382 17.24503 18.42506 19.60508 20.42823 21.12344 21.81864 20.7986 19.1413 17.48401 15.90665 14.36005 12.81345 12.19967 11.9575 11.71533 12.29165 13.20536 14.11906 14.55295 14.78229 15.01163 14.83514 14.47979 14.12445 13.46195 12.65959 11.85722 10.2083 8.161175 6.114054 6.401966 7.823925 9.245885 9.172994 8.35076 7.528525 6.901257 6.374832 5.848406 6.239881 7.121076 8.002272 9.531199 11.41649 13.30178 15.58935 18.1051 20.62085 20.79948 19.6119 18.42433 18.12874 18.37044 18.61214 19.34696 20.38776 21.42857 21.52932 21.02926 20.52921 20.53727 20.87976 21.22226 21.8884 22.77386 23.65933 24.15168 24.3698 24.58793 24.82351 25.07162 25.31974 25.38167 25.30602 25.23038 25.34278 25.59816 25.85354 21.1208 12.48575 3.850692 0 0 0 0 0 0
27.31463 26.89376 26.03868 23.69882 21.35896 19.28351 18.14958 17.01564 15.88406 14.76122 13.63837 12.73516 12.6823 12.62945 12.18882 10.18003 8.171245 6.428306 5.809528 5.190751 4.730546 4.972387 5.214228 5.429789 5.523362 5.616934 5.801825 6.431773 7.061721 7.354081 5.916073 4.478065 3.344392 3.854186 4.363979 4.884151 5.463484 6.042817 6.558255 6.688385 6.818514 6.970049 7.258454 7.54686 8.131873 10.73326 13.33465 15.72206 16.55846 17.39487 18.02648 17.07002 16.11357 15.50342 17.77658 20.04974 22.3755 25.17345 27.9714 30.4827 30.20592 29.92913 29.52223 27.73629 25.95036 24.16092 22.33076 20.5006 18.70424 17.34214 15.98003 14.67029 14.11109 13.55188 13.08889 14.18229 15.27569 16.31203 16.29132 16.27061 16.22182 15.56611 14.9104 14.32214 15.47943 16.63672 17.75086 17.47966 17.20845 16.96579 17.92504 18.88429 19.80681 18.4993 17.19179 15.89298 15.53225 15.17151 14.81587 16.77687 18.73787 20.69887 21.54469 22.38513 23.22557 22.46074 21.67672 20.8927 19.82158 18.74495 17.66832 18.09068 18.55274 19.01481 18.49424 17.94033 17.38642 18.92282 20.54589 22.16895 23.22731 24.25794 25.28856 18.79136 11.86598 4.940592 12.72518 21.46239 30.19959 31.80848 32.89872 33.98898 31.49058 28.70195 25.91333 26.1493 26.65482 27.16035 27.5091 27.84258 28.17605 26.6665 24.96162 23.25673 20.64878 17.93731 15.22585 14.9181 14.90694 14.89578 16.82032 19.00094 21.18157 21.56016 21.68405 21.80794 19.95517 17.80482 15.65448 16.07855 16.91423 17.74991 19.38879 21.16373 22.93866 24.21733 25.40715 26.59697 27.74526 28.88572 30.02617 29.03212 27.61367 26.19523 25.30206 24.51865 23.73524 22.80477 21.84205 20.87932 23.20807 26.2932 29.37833 29.35458 28.5832 27.81182 26.08273 24.11291 22.1431 21.26646 20.67669 20.08692 22.61283 25.99142 29.37001 27.67435 24.53187 21.38939 20.38252 20.0095 19.63648 21.56183 24.19665 26.83146 26.06986 24.21873 22.3676 20.93596 19.64405 18.35215 18.55959 19.28533 20.01106 20.37881 20.61823 20.85765 19.96848 18.66002 17.35157 15.96674 14.55253 13.13831 12.34222 11.79238 11.24254 11.72424 12.63114 13.53804 14.03817 14.36489 14.69161 14.53882 14.17471 13.8106 12.94055 11.8401 10.73965 9.386435 7.914334 6.442234 6.841603 8.149881 9.458159 9.175909 8.096353 7.016797 6.323095 5.828969 5.334844 5.640259 6.372248 7.104238 8.994551 11.52214 14.04972 16.18734 18.10377 20.02019 19.8791 18.53525 17.1914 16.83403 17.07086 17.30769 17.99394 18.95907 19.9242 20.29863 20.29553 20.29243 20.72338 21.44003 22.15667 22.84355 23.51026 24.17697 24.46908 24.49988 24.53068 24.66685 24.87867 25.0905 25.00057 24.68767 24.37477 24.31426 24.44567 24.57708 20.03825 11.84579 3.653324 0 0 0 0 0 0
26.3034 26.08558 25.38952 23.05811 20.72671 18.70378 17.77928 16.85477 15.94447 15.08687 14.22927 13.57042 13.68105 13.79168 13.52219 11.71555 9.908903 8.16001 6.655324 5.150637 3.999375 4.412837 4.826298 5.153418 5.079766 5.006114 5.100989 6.017223 6.933456 7.484481 6.163558 4.842636 3.775054 4.075569 4.376083 4.676774 4.97847 5.280166 5.646987 6.406537 7.166086 7.847135 8.026219 8.205304 8.642739 10.83646 13.03018 15.09672 16.24133 17.38595 18.34307 17.84637 17.34967 17.11337 19.04514 20.97691 22.9423 25.20946 27.47662 29.50724 29.23704 28.96684 28.5815 26.97587 25.37024 23.78035 22.37331 20.96628 19.59015 18.61111 17.63207 16.69111 16.29594 15.90077 15.57082 16.29588 17.02094 17.699 17.50617 17.31334 17.09524 16.33073 15.56622 14.86865 15.90316 16.93767 17.92782 17.49401 17.0602 16.65095 17.27594 17.90093 18.49055 16.93256 15.37457 13.8357 14.35521 14.87473 15.39579 16.61767 17.83955 19.06143 20.37564 21.6903 23.00496 22.66867 22.31265 21.95664 20.74272 19.51236 18.28199 17.99402 17.73102 17.46802 17.19307 16.91771 16.64235 18.42168 20.2862 22.15072 23.48245 24.78801 26.09357 20.19383 13.88425 7.574672 13.92663 21.09854 28.27045 30.29082 31.93636 33.58191 31.71439 29.56274 27.4111 27.72239 28.25318 28.78396 29.03342 29.25545 29.47748 28.09831 26.54943 25.00055 22.53993 19.97481 17.40969 16.90724 16.65931 16.41138 17.71571 19.2254 20.73509 20.84685 20.76101 20.67518 19.16141 17.43269 15.70397 15.07391 14.61951 14.16511 15.85178 17.90111 19.95044 21.83174 23.68295 25.53416 27.08254 28.57373 30.06492 29.59941 28.74486 27.89031 26.96942 26.03466 25.0999 24.20979 23.32948 22.44917 24.41222 27.02868 29.64514 29.427 28.52719 27.62738 26.19768 24.63478 23.07188 22.18134 21.46723 20.75312 23.19865 26.50887 29.81909 28.13171 25.01936 21.90701 20.36894 19.29813 18.22731 20.10601 22.89518 25.68435 24.97811 23.15058 21.32305 20.37209 19.71312 19.05416 19.35966 19.99856 20.63745 20.51769 20.12596 19.73424 18.95186 18.02436 17.09686 16.10187 15.08091 14.05995 13.1258 12.22625 11.3267 11.54413 12.222 12.89987 13.38669 13.79207 14.19744 14.10845 13.80158 13.49472 12.57693 11.38093 10.18493 9.404343 8.819144 8.233946 8.31351 8.715927 9.118344 8.718091 7.915473 7.112854 6.659154 6.385928 6.1127 6.165438 6.392086 6.618734 8.535022 11.3809 14.22678 16.2241 17.74014 19.25619 18.96749 17.6238 16.2801 15.79243 15.82037 15.84831 16.32035 17.06798 17.81561 18.44983 19.01157 19.57331 20.31352 21.17121 22.02889 22.57593 22.91245 23.24898 23.42864 23.49888 23.56912 23.8202 24.20113 24.58206 24.42945 23.88258 23.33572 23.07538 23.03291 22.99043 18.68557 11.04614 3.406707 0 0 0 0 0 0
25.29218 25.2774 24.74036 22.4174 20.09445 18.12405 17.40897 16.6939 16.00488 15.41253 14.82018 14.40568 14.67979 14.9539 14.85557 13.25106 11.64656 9.891715 7.501119 5.110523 3.268205 3.853286 4.438367 4.877046 4.63617 4.395294 4.400154 5.602673 6.805192 7.614881 6.411043 5.207206 4.205717 4.296952 4.388186 4.469396 4.493455 4.517515 4.73572 6.124689 7.513658 8.72422 8.793984 8.86375 9.153605 10.93966 12.72572 14.47138 15.9242 17.37703 18.65967 18.62272 18.58577 18.72332 20.3137 21.90408 23.5091 25.24547 26.98185 28.53177 28.26816 28.00455 27.64077 26.21545 24.79013 23.39978 22.41587 21.43196 20.47606 19.88008 19.28411 18.71193 18.48079 18.24966 18.05275 18.40947 18.7662 19.08596 18.72102 18.35608 17.96866 17.09535 16.22204 15.41515 16.32688 17.23861 18.10478 17.50836 16.91194 16.33611 16.62684 16.91757 17.17428 15.36582 13.55736 11.77842 13.17818 14.57795 15.9757 16.45846 16.94123 17.42399 19.20659 20.99546 22.78433 22.8766 22.94859 23.02059 21.66387 20.27977 18.89567 17.89738 16.90931 15.92123 15.8919 15.89509 15.89828 17.92054 20.02651 22.13248 23.73758 25.31808 26.89858 21.5963 15.90253 10.20875 15.12808 20.7347 26.34132 28.77315 30.974 33.17484 31.93819 30.42353 28.90887 29.29548 29.85153 30.40758 30.55774 30.66833 30.77892 29.53012 28.13724 26.74436 24.43108 22.0123 19.59352 18.89639 18.41168 17.92698 18.61111 19.44986 20.28862 20.13353 19.83797 19.54241 18.36766 17.06055 15.75345 14.06926 12.32478 10.5803 12.31477 14.63849 16.96222 19.44614 21.95875 24.47135 26.41982 28.26174 30.10367 30.16671 29.87605 29.5854 28.63678 27.55067 26.46456 25.61482 24.81692 24.01901 25.61637 27.76416 29.91195 29.49942 28.47118 27.44294 26.31262 25.15664 24.00066 23.09621 22.25777 21.41933 23.78446 27.02631 30.26816 28.58906 25.50684 22.42462 20.35537 18.58675 16.81814 18.6502 21.59372 24.53725 23.88636 22.08243 20.27849 19.80821 19.78219 19.75617 20.15973 20.71179 21.26384 20.65656 19.6337 18.61083 17.93525 17.3887 16.84215 16.23699 15.60929 14.98158 13.90939 12.66012 11.41086 11.36403 11.81286 12.26169 12.73521 13.21924 13.70328 13.67808 13.42845 13.17883 12.2133 10.92176 9.630224 9.422252 9.723955 10.02566 9.785418 9.281973 8.778528 8.260273 7.734592 7.208911 6.995214 6.942886 6.890557 6.690618 6.411924 6.13323 8.075493 11.23966 14.40383 16.26087 17.37652 18.49218 18.05588 16.71234 15.36881 14.75082 14.56988 14.38893 14.64677 15.1769 15.70702 16.60103 17.72761 18.85419 19.90367 20.90239 21.90112 22.30831 22.31465 22.32099 22.3882 22.49788 22.60756 22.97355 23.52359 24.07362 23.85832 23.0775 22.29667 21.8365 21.62015 21.40379 17.33289 10.24649 3.16009 0 0 0 0 0 0
24.62535 24.49846 23.90644 21.72392 19.5414 17.67933 16.9583 16.23727 15.59546 15.24764 14.89982 14.70757 15.11767 15.52777 15.58716 14.22832 12.86948 11.23897 8.459648 5.680327 3.492034 3.920402 4.348769 4.664056 4.454453 4.244849 4.277547 5.491158 6.704769 7.525445 6.332055 5.138665 4.146835 4.243475 4.340116 4.394562 4.208482 4.022402 4.110858 5.85486 7.598861 9.112842 9.155992 9.199141 9.420991 10.85767 12.29434 13.75289 15.36997 16.98706 18.47585 18.96979 19.46372 20.02912 21.18951 22.34989 23.5167 24.74108 25.96546 27.07824 27.10553 27.13282 27.05701 25.88857 24.72012 23.58663 22.8595 22.13236 21.43452 21.11317 20.79182 20.47341 20.1972 19.92098 19.65317 19.52131 19.38945 19.22696 18.49696 17.76697 17.0266 16.06195 15.09731 14.20423 15.16287 16.12151 17.03482 16.493 15.95118 15.42381 15.50504 15.58626 15.64424 14.29076 12.93727 11.61187 13.31059 15.00932 16.70464 16.85647 17.0083 17.16013 18.91172 20.67104 22.43036 22.69279 22.93735 23.18189 21.75747 20.30107 18.84465 17.55519 16.27014 14.9851 15.3032 15.67569 16.04818 18.08575 20.19238 22.29899 24.10117 25.88838 27.6756 22.86494 17.67899 12.49304 16.0217 20.11472 24.20773 26.97341 29.64252 32.31163 31.71064 30.84517 29.9797 30.55289 31.25428 31.95568 32.00734 31.99567 31.98399 30.94455 29.79617 28.64779 26.62561 24.50327 22.38094 21.31046 20.36976 19.42907 19.45924 19.61785 19.77646 19.45232 19.05995 18.66758 17.99491 17.28004 16.56518 14.81624 12.90197 10.98771 11.82385 13.12586 14.42788 16.79969 19.36303 21.92637 24.1916 26.40052 28.60945 29.14645 29.35102 29.5556 28.71138 27.64798 26.58459 26.00863 25.53957 25.07051 26.34351 28.01684 29.69017 29.18058 28.14604 27.1115 26.33822 25.63062 24.92301 24.2034 23.48065 22.75789 24.88936 27.80195 30.71453 28.86801 25.66451 22.46101 20.28553 18.41517 16.5448 18.17098 20.87649 23.582 23.11607 21.63277 20.14948 20.08532 20.49391 20.9025 21.37417 21.86765 22.36113 21.5602 20.29525 19.03031 18.15333 17.42048 16.68764 16.2695 15.97247 15.67544 14.436 12.82111 11.20622 10.75456 10.7824 10.81025 11.13024 11.5748 12.01935 11.93468 11.61678 11.29888 10.68617 9.939209 9.192247 9.355767 9.947551 10.53933 10.30483 9.66902 9.033213 8.63469 8.355115 8.075539 7.728879 7.347522 6.966165 6.779026 6.695508 6.611989 8.384999 11.17942 13.97383 15.54997 16.43512 17.32028 16.93281 15.80141 14.67 14.02621 13.67613 13.32605 13.57569 14.19746 14.81923 15.86856 17.19114 18.51373 19.57988 20.47726 21.37463 21.65852 21.52668 21.39484 21.35882 21.38966 21.42049 21.82962 22.51037 23.19111 23.14458 22.56063 21.97669 20.70815 18.91907 17.12999 13.29501 7.85946 2.423913 0 0 0 0 0 0
24.15873 23.73651 22.96513 20.99976 19.03439 17.3131 16.46091 15.60871 14.91292 14.7976 14.68227 14.69942 15.22952 15.75961 15.96893 14.88105 13.79318 12.36274 9.483709 6.604681 4.271009 4.351802 4.432594 4.487909 4.424967 4.362024 4.491067 5.555799 6.620532 7.308218 6.063285 4.818353 3.803379 4.030221 4.257064 4.396776 4.039793 3.682811 3.652487 5.592017 7.531548 9.217517 9.282128 9.346741 9.546842 10.66801 11.78918 12.98024 14.67792 16.37559 18.00113 19.0673 20.13347 21.15812 21.837 22.51589 23.19923 23.92253 24.64584 25.34679 25.83027 26.31374 26.68077 25.8137 24.94664 24.10334 23.53627 22.96921 22.43517 22.32541 22.21564 22.08415 21.6413 21.19844 20.74118 20.05083 19.36048 18.64365 17.43645 16.22925 15.02919 13.98336 12.93752 11.97169 13.07589 14.18009 15.24004 14.87906 14.51809 14.1642 14.10845 14.05269 13.98993 13.50151 13.01309 12.54443 14.20419 15.86396 17.52021 17.57838 17.63656 17.69474 19.12503 20.56195 21.99887 22.28127 22.54988 22.81849 21.37002 19.88864 18.40725 17.07026 15.73711 14.40395 15.12867 15.9232 16.71774 18.63833 20.60561 22.5729 24.52779 26.48207 28.43636 24.05578 19.31488 14.57398 16.73638 19.34584 21.95529 25.0097 28.09648 31.18326 31.2207 31.01152 30.80234 31.62677 32.54332 33.45987 33.41351 33.27328 33.13306 32.34887 31.49644 30.644 28.99649 27.25785 25.51922 23.97154 22.44742 20.9233 20.2799 19.75301 19.22612 18.78978 18.36623 17.94268 17.86689 17.84345 17.82001 16.58146 15.14863 13.7158 13.10365 12.63051 12.15737 14.00159 16.26069 18.5198 21.05335 23.63873 26.22411 27.20334 27.86323 28.52311 27.86008 26.92059 25.9811 25.81461 25.81765 25.82068 26.79336 27.98887 29.18437 28.6343 27.66445 26.69459 26.31188 26.07675 25.84162 25.42238 24.95484 24.4873 26.29601 28.72767 31.15933 29.04324 25.63045 22.21766 20.183 18.55736 16.93172 18.25947 20.49888 22.73829 22.53264 21.54265 20.55266 20.8513 21.57921 22.30711 22.82949 23.28082 23.73215 22.90839 21.62754 20.34669 19.08915 17.84026 16.59138 16.24236 16.23964 16.2369 14.81323 12.82347 10.8337 9.895505 9.390771 8.886038 8.971019 9.307405 9.643792 9.428003 8.968869 8.509735 8.482689 8.652409 8.822129 9.240226 9.775152 10.31008 10.27054 9.952013 9.633483 9.492891 9.441498 9.390103 8.693675 7.663613 6.633551 6.613537 7.132409 7.651281 9.141549 11.16625 13.19095 14.40445 15.15786 15.91126 15.68682 14.89077 14.09472 13.48586 12.98976 12.49367 12.85484 13.74797 14.64111 15.78502 17.0892 18.39338 19.30613 19.96125 20.61638 20.78657 20.62816 20.46975 20.33587 20.21911 20.10235 20.51288 21.30202 22.09115 22.34792 22.21131 22.0747 19.64404 15.46909 11.29414 7.696198 4.549675 1.403152 0 0 0 0 0 0
23.6921 22.97457 22.02382 20.2756 18.52739 16.94687 15.96351 14.98015 14.23039 14.34755 14.46472 14.69127 15.34136 15.99145 16.3507 15.53379 14.71688 13.48651 10.50777 7.529035 5.049985 4.783202 4.516419 4.311762 4.395481 4.479199 4.704587 5.62044 6.536294 7.090991 5.794517 4.498042 3.459922 3.816968 4.174013 4.39899 3.871105 3.343221 3.194115 5.329175 7.464234 9.322192 9.408266 9.49434 9.672691 10.47836 11.28402 12.2076 13.98586 15.76413 17.52641 19.16482 20.80322 22.28711 22.4845 22.68188 22.88176 23.104 23.32623 23.61535 24.55501 25.49466 26.30452 25.73884 25.17315 24.62004 24.21305 23.80606 23.43581 23.53764 23.63946 23.69489 23.0854 22.4759 21.82918 20.58034 19.3315 18.06035 16.37595 14.69154 13.03178 11.90476 10.77774 9.73916 10.98892 12.23868 13.44525 13.26513 13.08501 12.90459 12.71186 12.51913 12.33562 12.71226 13.0889 13.47698 15.09779 16.7186 18.33577 18.3003 18.26482 18.22935 19.33834 20.45286 21.56738 21.86975 22.16242 22.45509 20.98257 19.47621 17.96985 16.58534 15.20407 13.82279 14.95413 16.17072 17.3873 19.19091 21.01885 22.8468 24.95441 27.07576 29.19711 25.24663 20.95077 16.65492 17.45106 18.57696 19.70285 23.04599 26.55044 30.05489 30.73077 31.17788 31.62498 32.70066 33.83236 34.96406 34.81968 34.5509 34.28212 33.7532 33.1967 32.64021 31.36737 30.01243 28.65749 26.63262 24.52508 22.41754 21.10056 19.88817 18.67578 18.12723 17.67251 17.21779 17.73887 18.40685 19.07483 18.34667 17.39528 16.44389 14.38345 12.13516 9.88687 11.20349 13.15836 15.11322 17.9151 20.87693 23.83877 25.26023 26.37543 27.49062 27.00878 26.1932 25.37761 25.6206 26.09573 26.57086 27.24321 27.9609 28.67858 28.08802 27.18286 26.27769 26.28555 26.52288 26.76022 26.64137 26.42904 26.21671 27.70267 29.65339 31.60412 29.21848 25.59639 21.97431 20.08046 18.69955 17.31865 18.34796 20.12127 21.89457 21.94921 21.45253 20.95584 21.61728 22.6645 23.71173 24.28481 24.69399 25.10318 24.25658 22.95982 21.66306 20.02496 18.26004 16.49512 16.21523 16.5068 16.79837 15.19046 12.82582 10.46119 9.036447 7.999138 6.96183 6.811794 7.040016 7.268238 6.92133 6.320961 5.720591 6.279207 7.365609 8.45201 9.124684 9.602754 10.08082 10.23626 10.23501 10.23375 10.35109 10.52788 10.70467 9.65847 7.979704 6.300938 6.448049 7.569311 8.690573 9.8981 11.15309 12.40808 13.25894 13.88059 14.50224 14.44083 13.98013 13.51943 12.94551 12.3034 11.66128 12.134 13.29849 14.46298 15.70147 16.98725 18.27304 19.03238 19.44525 19.85812 19.91463 19.72964 19.54466 19.31292 19.04856 18.7842 19.19614 20.09367 20.99119 21.55127 21.86199 22.17272 18.57994 12.01911 5.458279 2.097389 1.23989 0.3823906 0 0 0 0 0 0
